ply
format ascii 1.0
element vertex 1366
property float x
property float y
property float z
end_header
-0.22853334 -0.13417639 0.04105957
-0.22853959 -0.13398831 0.04101389
-0.22854584 -0.13380022 0.04096822
-0.22855210 -0.13361213 0.04092254
-0.22855835 -0.13342405 0.04087687
-0.22856460 -0.13323596 0.04083119
-0.22857086 -0.13304787 0.04078552
-0.22857711 -0.13285979 0.04073984
-0.22858337 -0.13267170 0.04069417
-0.22858962 -0.13248361 0.04064849
-0.22859587 -0.13229553 0.04060282
-0.22860213 -0.13210744 0.04055714
-0.22860838 -0.13191935 0.04051147
-0.22861464 -0.13173127 0.04046579
-0.22862089 -0.13154318 0.04042012
-0.22862714 -0.13135509 0.04037444
-0.22863340 -0.13116701 0.04032877
-0.22863965 -0.13097892 0.04028310
-0.22864591 -0.13079083 0.04023742
-0.22865216 -0.13060274 0.04019175
-0.22865841 -0.13041466 0.04014607
-0.22866467 -0.13022657 0.04010040
-0.22867092 -0.13003848 0.04005472
-0.22883292 -0.12996491 0.03956335
-0.22895616 -0.12986257 0.03918293
-0.22897217 -0.12968139 0.03910929
-0.23944254 -0.12320170 0.00710396
-0.23944910 -0.12300426 0.00705601
-0.23945567 -0.12280681 0.00700806
-0.23946223 -0.12260936 0.00696012
-0.23946880 -0.12241191 0.00691217
-0.23947536 -0.12221447 0.00686422
-0.23948193 -0.12201702 0.00681627
-0.23948849 -0.12181957 0.00676832
-0.23949506 -0.12162212 0.00672038
-0.23950162 -0.12142468 0.00667243
-0.23950819 -0.12122723 0.00662448
-0.23951475 -0.12102978 0.00657653
-0.23952132 -0.12083234 0.00652859
-0.23952788 -0.12063489 0.00648064
-0.23953445 -0.12043744 0.00643269
-0.23984098 -0.08686779 0.00068336
-0.23990116 -0.08669786 0.00048026
-0.23990770 -0.08650108 0.00043247
-0.22683389 -0.17950455 0.05204398
-0.22684014 -0.17931646 0.05199831
-0.22684639 -0.17912838 0.05195263
-0.22685265 -0.17894029 0.05190696
-0.22685890 -0.17875220 0.05186128
-0.22686516 -0.17856412 0.05181561
-0.22687141 -0.17837603 0.05176993
-0.22687766 -0.17818794 0.05172426
-0.22688392 -0.17799985 0.05167858
-0.22689017 -0.17781177 0.05163291
-0.22689643 -0.17762368 0.05158723
-0.22690268 -0.17743559 0.05154156
-0.22690893 -0.17724751 0.05149588
-0.22691519 -0.17705942 0.05145021
-0.22692144 -0.17687133 0.05140453
-0.22692769 -0.17668325 0.05135886
-0.22693395 -0.17649516 0.05131318
-0.22694020 -0.17630708 0.05126751
-0.22694646 -0.17611899 0.05122184
-0.22695271 -0.17593090 0.05117616
-0.22698398 -0.17499047 0.05094779
-0.22699023 -0.17480238 0.05090211
-0.22699649 -0.17461429 0.05085644
-0.22700274 -0.17442620 0.05081076
-0.22700900 -0.17423812 0.05076509
-0.22701525 -0.17405003 0.05071941
-0.22702150 -0.17386195 0.05067374
-0.22702776 -0.17367386 0.05062806
-0.22703401 -0.17348577 0.05058239
-0.22704026 -0.17329769 0.05053671
-0.22704652 -0.17310960 0.05049104
-0.22705277 -0.17292151 0.05044537
-0.22705903 -0.17273343 0.05039969
-0.22706528 -0.17254534 0.05035402
-0.22707153 -0.17235725 0.05030834
-0.22707779 -0.17216916 0.05026267
-0.22708404 -0.17198108 0.05021699
-0.22709030 -0.17179299 0.05017132
-0.22709655 -0.17160490 0.05012564
-0.22710280 -0.17141682 0.05007997
-0.22710906 -0.17122873 0.05003429
-0.22711531 -0.17104064 0.04998862
-0.22712157 -0.17085256 0.04994294
-0.22712782 -0.17066447 0.04989727
-0.22713407 -0.17047639 0.04985159
-0.22714033 -0.17028830 0.04980592
-0.22714658 -0.17010021 0.04976024
-0.22715283 -0.16991212 0.04971457
-0.22715909 -0.16972404 0.04966889
-0.22716534 -0.16953595 0.04962322
-0.22717160 -0.16934786 0.04957755
-0.22717785 -0.16915978 0.04953187
-0.22718410 -0.16897169 0.04948620
-0.22719036 -0.16878360 0.04944052
-0.22719661 -0.16859551 0.04939485
-0.22720287 -0.16840743 0.04934917
-0.22720912 -0.16821934 0.04930350
-0.22721537 -0.16803126 0.04925782
-0.22722163 -0.16784317 0.04921215
-0.22722788 -0.16765508 0.04916647
-0.22723414 -0.16746700 0.04912080
-0.22724039 -0.16727891 0.04907512
-0.22724664 -0.16709082 0.04902945
-0.23130011 -0.16569126 0.03678763
-0.23140689 -0.16558961 0.03645578
-0.23154397 -0.16551487 0.03603790
-0.23164092 -0.16540401 0.03573394
-0.23171780 -0.16527506 0.03548696
-0.23178466 -0.16513702 0.03526849
-0.23186165 -0.16500790 0.03502123
-0.23187812 -0.16482476 0.03494592
-0.23190469 -0.16465058 0.03484189
-0.23191108 -0.16445842 0.03479523
-0.23115321 -0.16358781 0.03692092
-0.23115957 -0.16339636 0.03687443
-0.23117596 -0.16321377 0.03679949
-0.23124247 -0.16307553 0.03658198
-0.23126889 -0.16290175 0.03647847
-0.22771425 -0.15782196 0.04630509
-0.22773020 -0.15764220 0.04623179
-0.22776553 -0.15747933 0.04610342
-0.22779118 -0.15730797 0.04600251
-0.22779744 -0.15711969 0.04595679
-0.22780370 -0.15693141 0.04591107
-0.22780996 -0.15674313 0.04586535
-0.22781622 -0.15655485 0.04581963
-0.22782248 -0.15636656 0.04577390
-0.22780935 -0.15616148 0.04578339
-0.22776715 -0.15593130 0.04587555
-0.22777341 -0.15574308 0.04582985
-0.22777967 -0.15555486 0.04578414
-0.22779561 -0.15537499 0.04571087
-0.23786946 -0.16081393 0.01657176
-0.23789734 -0.16063464 0.01646311
-0.23790390 -0.16043728 0.01641518
-0.23786782 -0.16020391 0.01648874
-0.23784242 -0.15997962 0.01653189
-0.23784898 -0.15978233 0.01648398
-0.23785554 -0.15958504 0.01643607
-0.23650231 -0.15220417 0.01939220
-0.23654037 -0.15203391 0.01925461
-0.23655741 -0.15184653 0.01917702
-0.23656392 -0.15165062 0.01912945
-0.23657043 -0.15145472 0.01908188
-0.23657695 -0.15125881 0.01903430
-0.23660449 -0.15107987 0.01892668
-0.23666363 -0.15092635 0.01872893
-0.23669120 -0.15074733 0.01862123
-0.23670824 -0.15055980 0.01854361
-0.23671476 -0.15036379 0.01849601
-0.23671075 -0.15015934 0.01847844
-0.23670674 -0.14995492 0.01846088
-0.23668168 -0.14973365 0.01850346
-0.23666713 -0.14952086 0.01851601
-0.23666312 -0.14931652 0.01849847
-0.23668016 -0.14912898 0.01842085
-0.23668668 -0.14893304 0.01837327
-0.23850541 -0.14531499 0.01244976
-0.23851198 -0.14511755 0.01240182
-0.22830355 -0.13530415 0.04131042
-0.22830981 -0.13511607 0.04126474
-0.22831606 -0.13492798 0.04121907
-0.22832231 -0.13473989 0.04117339
-0.22832857 -0.13455181 0.04112772
-0.22833482 -0.13436372 0.04108204
-0.22834108 -0.13417563 0.04103637
-0.22834733 -0.13398755 0.04099070
-0.22835358 -0.13379946 0.04094502
-0.22835984 -0.13361137 0.04089935
-0.22836609 -0.13342329 0.04085367
-0.22837234 -0.13323520 0.04080800
-0.22837860 -0.13304711 0.04076232
-0.22838485 -0.13285903 0.04071665
-0.22839111 -0.13267094 0.04067097
-0.22839736 -0.13248285 0.04062530
-0.22840361 -0.13229477 0.04057962
-0.22840987 -0.13210668 0.04053395
-0.22841612 -0.13191859 0.04048827
-0.22842238 -0.13173051 0.04044260
-0.22842863 -0.13154242 0.04039692
-0.22843488 -0.13135433 0.04035125
-0.22844114 -0.13116625 0.04030557
-0.22844739 -0.13097816 0.04025990
-0.22845365 -0.13079007 0.04021422
-0.22845990 -0.13060198 0.04016855
-0.22846615 -0.13041390 0.04012288
-0.22847241 -0.13022581 0.04007720
-0.22847866 -0.13003772 0.04003153
-0.22848491 -0.12984964 0.03998585
-0.22864678 -0.12977592 0.03949443
-0.22876991 -0.12967348 0.03911397
-0.23924071 -0.12320091 0.00707961
-0.23924727 -0.12300346 0.00703166
-0.23925384 -0.12280601 0.00698371
-0.23926040 -0.12260856 0.00693576
-0.23926697 -0.12241112 0.00688782
-0.23927353 -0.12221367 0.00683987
-0.23928010 -0.12201622 0.00679192
-0.23928666 -0.12181877 0.00674397
-0.23929323 -0.12162133 0.00669603
-0.23929979 -0.12142388 0.00664808
-0.23930636 -0.12122643 0.00660013
-0.23931292 -0.12102898 0.00655218
-0.23931949 -0.12083154 0.00650423
-0.23932605 -0.12063409 0.00645629
-0.23933262 -0.12043664 0.00640834
-0.23933918 -0.12023920 0.00636039
-0.23963335 -0.08706372 0.00070687
-0.23974708 -0.08692068 0.00034845
-0.23976435 -0.08672921 0.00026958
-0.23977089 -0.08653238 0.00022178
-0.23971311 -0.08630351 0.00036042
-0.22664163 -0.17950379 0.05202078
-0.22664788 -0.17931570 0.05197511
-0.22665413 -0.17912762 0.05192944
-0.22666039 -0.17893953 0.05188376
-0.22666664 -0.17875144 0.05183809
-0.22667290 -0.17856336 0.05179241
-0.22667915 -0.17837527 0.05174674
-0.22668540 -0.17818718 0.05170106
-0.22669166 -0.17799909 0.05165539
-0.22669791 -0.17781101 0.05160971
-0.22670417 -0.17762292 0.05156404
-0.22671042 -0.17743483 0.05151836
-0.22671667 -0.17724675 0.05147269
-0.22672293 -0.17705866 0.05142701
-0.22672918 -0.17687057 0.05138134
-0.22673543 -0.17668249 0.05133566
-0.22674169 -0.17649440 0.05128999
-0.22674794 -0.17630632 0.05124431
-0.22675420 -0.17611823 0.05119864
-0.22678547 -0.17517779 0.05097027
-0.22679172 -0.17498971 0.05092459
-0.22679797 -0.17480162 0.05087892
-0.22680423 -0.17461353 0.05083324
-0.22681048 -0.17442544 0.05078757
-0.22681674 -0.17423736 0.05074189
-0.22682299 -0.17404927 0.05069622
-0.22682924 -0.17386119 0.05065054
-0.22683550 -0.17367310 0.05060487
-0.22684175 -0.17348501 0.05055919
-0.22684800 -0.17329693 0.05051352
-0.22685426 -0.17310884 0.05046784
-0.22686051 -0.17292075 0.05042217
-0.22686677 -0.17273267 0.05037649
-0.22687302 -0.17254458 0.05033082
-0.22687927 -0.17235649 0.05028515
-0.22688553 -0.17216840 0.05023947
-0.22689178 -0.17198032 0.05019380
-0.22689804 -0.17179223 0.05014812
-0.22690429 -0.17160414 0.05010245
-0.22691054 -0.17141606 0.05005677
-0.22691680 -0.17122797 0.05001110
-0.22692305 -0.17103988 0.04996542
-0.22692931 -0.17085180 0.04991975
-0.22693556 -0.17066371 0.04987407
-0.22694181 -0.17047563 0.04982840
-0.22694807 -0.17028754 0.04978272
-0.22695432 -0.17009945 0.04973705
-0.22696058 -0.16991136 0.04969137
-0.22696683 -0.16972328 0.04964570
-0.22697308 -0.16953519 0.04960002
-0.22697934 -0.16934710 0.04955435
-0.22698559 -0.16915902 0.04950867
-0.22699184 -0.16897093 0.04946300
-0.22699810 -0.16878284 0.04941733
-0.22700435 -0.16859475 0.04937165
-0.22701061 -0.16840667 0.04932598
-0.22701686 -0.16821858 0.04928030
-0.22702311 -0.16803050 0.04923463
-0.22702937 -0.16784241 0.04918895
-0.22703562 -0.16765432 0.04914328
-0.22704188 -0.16746624 0.04909760
-0.22704813 -0.16727815 0.04905193
-0.22705438 -0.16709006 0.04900625
-0.23115435 -0.16573551 0.03662140
-0.23127115 -0.16564286 0.03626083
-0.23136796 -0.16553211 0.03595706
-0.23147490 -0.16543025 0.03562444
-0.23154168 -0.16529229 0.03540604
-0.23161856 -0.16516324 0.03515885
-0.23167533 -0.16501611 0.03496888
-0.23170188 -0.16484195 0.03486485
-0.23171837 -0.16465879 0.03478948
-0.23176510 -0.16450250 0.03462806
-0.23178157 -0.16431927 0.03455267
-0.23097388 -0.16340446 0.03682238
-0.23098025 -0.16321300 0.03677588
-0.23098662 -0.16302153 0.03672939
-0.22752184 -0.15782120 0.04628188
-0.22753779 -0.15764144 0.04620858
-0.22756341 -0.15747012 0.04610774
-0.22757935 -0.15729030 0.04603448
-0.22759530 -0.15711049 0.04596117
-0.22760156 -0.15692221 0.04591545
-0.22759813 -0.15672551 0.04589733
-0.22760439 -0.15653725 0.04585161
-0.22761065 -0.15634898 0.04580590
-0.22758786 -0.15613554 0.04584289
-0.22757474 -0.15593054 0.04585234
-0.22758100 -0.15574232 0.04580663
-0.22758726 -0.15555410 0.04576093
-0.22760320 -0.15537423 0.04568766
-0.22760946 -0.15518600 0.04564195
-0.23759730 -0.16095624 0.01677747
-0.23765709 -0.16080410 0.01657779
-0.23768495 -0.16062482 0.01646913
-0.23769151 -0.16042747 0.01642121
-0.23769807 -0.16023012 0.01637329
-0.23765139 -0.15998782 0.01647718
-0.23765795 -0.15979052 0.01642927
-0.23765387 -0.15958424 0.01641174
-0.23767107 -0.15939591 0.01633344
-0.23618663 -0.15210947 0.01969781
-0.23630860 -0.15200751 0.01932048
-0.23633613 -0.15182869 0.01921289
-0.23634264 -0.15163280 0.01916532
-0.23634916 -0.15143691 0.01911775
-0.23635567 -0.15124102 0.01907018
-0.23637269 -0.15105362 0.01899259
-0.23638971 -0.15086620 0.01891499
-0.23640674 -0.15067876 0.01883739
-0.23641325 -0.15048284 0.01878981
-0.23641976 -0.15028692 0.01874224
-0.23643680 -0.15009944 0.01866463
-0.23645383 -0.14991194 0.01858701
-0.23644983 -0.14970758 0.01856947
-0.23641429 -0.14947801 0.01864205
-0.23642080 -0.14928212 0.01859448
-0.23642732 -0.14908623 0.01854692
-0.22811129 -0.13530339 0.04128722
-0.22811755 -0.13511531 0.04124155
-0.22812380 -0.13492722 0.04119587
-0.22813005 -0.13473913 0.04115020
-0.22813631 -0.13455105 0.04110452
-0.22814256 -0.13436296 0.04105885
-0.22814882 -0.13417487 0.04101317
-0.22815507 -0.13398679 0.04096750
-0.22816132 -0.13379870 0.04092182
-0.22816758 -0.13361061 0.04087615
-0.22817383 -0.13342253 0.04083048
-0.22818009 -0.13323444 0.04078480
-0.22818634 -0.13304635 0.04073913
-0.22819259 -0.13285827 0.04069345
-0.22819885 -0.13267018 0.04064778
-0.22820510 -0.13248209 0.04060210
-0.22821135 -0.13229401 0.04055643
-0.22821761 -0.13210592 0.04051075
-0.22822386 -0.13191783 0.04046508
-0.22823012 -0.13172975 0.04041940
-0.22823637 -0.13154166 0.04037373
-0.22824262 -0.13135357 0.04032805
-0.22824888 -0.13116549 0.04028238
-0.22825513 -0.13097740 0.04023670
-0.22826139 -0.13078931 0.04019103
-0.22826764 -0.13060123 0.04014535
-0.22827389 -0.13041314 0.04009968
-0.22828015 -0.13022505 0.04005401
-0.22828640 -0.13003696 0.04000833
-0.22829266 -0.12984888 0.03996266
-0.22829891 -0.12966079 0.03991698
-0.23903887 -0.12320011 0.00705526
-0.23904544 -0.12300266 0.00700731
-0.23905200 -0.12280521 0.00695936
-0.23905857 -0.12260777 0.00691141
-0.23906514 -0.12241032 0.00686347
-0.23907170 -0.12221287 0.00681552
-0.23907827 -0.12201542 0.00676757
-0.23908483 -0.12181798 0.00671962
-0.23909140 -0.12162053 0.00667168
-0.23909796 -0.12142308 0.00662373
-0.23910453 -0.12122563 0.00657578
-0.23911109 -0.12102819 0.00652783
-0.23911766 -0.12083074 0.00647988
-0.23912422 -0.12063329 0.00643194
-0.23913079 -0.12043585 0.00638399
-0.23913735 -0.12023840 0.00633604
-0.23953934 -0.08711671 0.00037198
-0.23962091 -0.08695750 0.00010653
-0.23965963 -0.08677671 -0.00003464
-0.23968763 -0.08659050 -0.00014468
-0.23969418 -0.08639355 -0.00019250
-0.22644937 -0.17950303 0.05199759
-0.22645562 -0.17931494 0.05195191
-0.22646187 -0.17912686 0.05190624
-0.22646813 -0.17893877 0.05186056
-0.22647438 -0.17875068 0.05181489
-0.22648064 -0.17856260 0.05176922
-0.22648689 -0.17837451 0.05172354
-0.22649314 -0.17818642 0.05167787
-0.22649940 -0.17799834 0.05163219
-0.22650565 -0.17781025 0.05158652
-0.22651191 -0.17762216 0.05154084
-0.22651816 -0.17743407 0.05149517
-0.22652441 -0.17724599 0.05144949
-0.22653067 -0.17705790 0.05140382
-0.22653692 -0.17686981 0.05135814
-0.22654318 -0.17668173 0.05131247
-0.22654943 -0.17649364 0.05126679
-0.22655568 -0.17630556 0.05122112
-0.22658695 -0.17536512 0.05099275
-0.22659321 -0.17517703 0.05094707
-0.22659946 -0.17498895 0.05090140
-0.22660571 -0.17480086 0.05085572
-0.22661197 -0.17461277 0.05081005
-0.22661822 -0.17442469 0.05076437
-0.22662448 -0.17423660 0.05071870
-0.22663073 -0.17404851 0.05067302
-0.22663698 -0.17386043 0.05062735
-0.22664324 -0.17367234 0.05058167
-0.22664949 -0.17348425 0.05053600
-0.22665575 -0.17329617 0.05049032
-0.22666200 -0.17310808 0.05044465
-0.22666825 -0.17291999 0.05039897
-0.22667451 -0.17273191 0.05035330
-0.22668076 -0.17254382 0.05030762
-0.22668701 -0.17235573 0.05026195
-0.22669327 -0.17216765 0.05021627
-0.22669952 -0.17197956 0.05017060
-0.22670578 -0.17179147 0.05012493
-0.22671203 -0.17160338 0.05007925
-0.22671828 -0.17141530 0.05003358
-0.22672454 -0.17122721 0.04998790
-0.22673079 -0.17103912 0.04994223
-0.22673705 -0.17085104 0.04989655
-0.22674330 -0.17066295 0.04985088
-0.22674955 -0.17047487 0.04980520
-0.22675581 -0.17028678 0.04975953
-0.22676206 -0.17009869 0.04971385
-0.22676832 -0.16991061 0.04966818
-0.22677457 -0.16972252 0.04962250
-0.22678082 -0.16953443 0.04957683
-0.22678708 -0.16934634 0.04953115
-0.22679333 -0.16915826 0.04948548
-0.22679958 -0.16897017 0.04943980
-0.22680584 -0.16878208 0.04939413
-0.22681209 -0.16859400 0.04934845
-0.22681835 -0.16840591 0.04930278
-0.22682460 -0.16821782 0.04925711
-0.22683085 -0.16802974 0.04921143
-0.22683711 -0.16784165 0.04916576
-0.22684336 -0.16765356 0.04912008
-0.22684962 -0.16746548 0.04907441
-0.22685587 -0.16727739 0.04902873
-0.22686212 -0.16708930 0.04898306
-0.23099851 -0.16577077 0.03648364
-0.23111524 -0.16567814 0.03612288
-0.23120195 -0.16555836 0.03584763
-0.23129878 -0.16544749 0.03554353
-0.23136551 -0.16530952 0.03532506
-0.23146249 -0.16519847 0.03502049
-0.23148902 -0.16502434 0.03491647
-0.23151554 -0.16485017 0.03481244
-0.23153201 -0.16466698 0.03473712
-0.23157872 -0.16451070 0.03457564
-0.23158511 -0.16431849 0.03452897
-0.23159150 -0.16412628 0.03448229
-0.23088461 -0.16330104 0.03646725
-0.22732943 -0.15782044 0.04625867
-0.22733569 -0.15763221 0.04621296
-0.22735163 -0.15745245 0.04613965
-0.22737724 -0.15728110 0.04603881
-0.22739317 -0.15710128 0.04596555
-0.22739943 -0.15691302 0.04591983
-0.22739602 -0.15671634 0.04590166
-0.22740228 -0.15652808 0.04585594
-0.22738918 -0.15632302 0.04586538
-0.22737609 -0.15611800 0.04587484
-0.22736302 -0.15591301 0.04588430
-0.22737893 -0.15573317 0.04581104
-0.22738519 -0.15554496 0.04576533
-0.22740113 -0.15536512 0.04569201
-0.22740738 -0.15517690 0.04564630
-0.23740628 -0.16096448 0.01672278
-0.23743411 -0.16078524 0.01661419
-0.23747258 -0.16061500 0.01647517
-0.23748978 -0.16042667 0.01639687
-0.23749634 -0.16022932 0.01634895
-0.23744972 -0.15998702 0.01645285
-0.23745628 -0.15978972 0.01640494
-0.23746284 -0.15959242 0.01635703
-0.23749067 -0.15941303 0.01624840
-0.23749723 -0.15921571 0.01620049
-0.23593413 -0.15206603 0.01982344
-0.23599303 -0.15191291 0.01962613
-0.23607294 -0.15177677 0.01936871
-0.23611092 -0.15160647 0.01923116
-0.23611744 -0.15141061 0.01918359
-0.23612395 -0.15121475 0.01913603
-0.23614096 -0.15102736 0.01905850
-0.23615797 -0.15083997 0.01898091
-0.23617498 -0.15065256 0.01890331
-0.23618149 -0.15045667 0.01885575
-0.23617751 -0.15025233 0.01883821
-0.23618402 -0.15005645 0.01879064
-0.23619053 -0.14986057 0.01874307
-0.22791903 -0.13530263 0.04126403
-0.22792529 -0.13511455 0.04121835
-0.22793154 -0.13492646 0.04117268
-0.22793779 -0.13473837 0.04112700
-0.22794405 -0.13455029 0.04108133
-0.22795030 -0.13436220 0.04103565
-0.22795656 -0.13417411 0.04098998
-0.22796281 -0.13398603 0.04094430
-0.22796906 -0.13379794 0.04089863
-0.22797532 -0.13360985 0.04085295
-0.22798157 -0.13342177 0.04080728
-0.22798783 -0.13323368 0.04076161
-0.22799408 -0.13304559 0.04071593
-0.22800033 -0.13285751 0.04067026
-0.22800659 -0.13266942 0.04062458
-0.22801284 -0.13248133 0.04057891
-0.22801909 -0.13229325 0.04053323
-0.22802535 -0.13210516 0.04048756
-0.22803160 -0.13191707 0.04044188
-0.22803786 -0.13172899 0.04039621
-0.22804411 -0.13154090 0.04035053
-0.22805036 -0.13135281 0.04030486
-0.22805662 -0.13116473 0.04025918
-0.22806287 -0.13097664 0.04021351
-0.22806913 -0.13078855 0.04016783
-0.22807538 -0.13060047 0.04012216
-0.22808163 -0.13041238 0.04007648
-0.22808789 -0.13022429 0.04003081
-0.22809414 -0.13003620 0.03998513
-0.22810040 -0.12984812 0.03993946
-0.23883706 -0.12319931 0.00703091
-0.23884362 -0.12300186 0.00698296
-0.23885019 -0.12280441 0.00693501
-0.23885675 -0.12260697 0.00688707
-0.23886332 -0.12240952 0.00683912
-0.23886988 -0.12221207 0.00679117
-0.23887645 -0.12201463 0.00674322
-0.23888301 -0.12181718 0.00669527
-0.23888958 -0.12161973 0.00664733
-0.23889614 -0.12142228 0.00659938
-0.23890271 -0.12122484 0.00655143
-0.23890927 -0.12102739 0.00650348
-0.23891584 -0.12082994 0.00645554
-0.23892240 -0.12063249 0.00640759
-0.23892897 -0.12043505 0.00635964
-0.23893554 -0.12023760 0.00631169
-0.23946667 -0.08718052 -0.00002549
-0.23948395 -0.08698896 -0.00010445
-0.23951192 -0.08680274 -0.00021450
-0.23955064 -0.08662186 -0.00035575
-0.23955719 -0.08642486 -0.00040359
-0.23954230 -0.08621717 -0.00038914
-0.22625711 -0.17950227 0.05197439
-0.22626336 -0.17931418 0.05192872
-0.22626961 -0.17912610 0.05188304
-0.22627587 -0.17893801 0.05183737
-0.22628212 -0.17874992 0.05179170
-0.22628838 -0.17856184 0.05174602
-0.22629463 -0.17837375 0.05170035
-0.22630088 -0.17818566 0.05165467
-0.22630714 -0.17799758 0.05160900
-0.22631339 -0.17780949 0.05156332
-0.22631965 -0.17762140 0.05151765
-0.22632590 -0.17743331 0.05147197
-0.22633215 -0.17724523 0.05142630
-0.22633841 -0.17705714 0.05138062
-0.22634466 -0.17686905 0.05133495
-0.22635092 -0.17668097 0.05128927
-0.22635717 -0.17649288 0.05124360
-0.22638844 -0.17555245 0.05101522
-0.22639469 -0.17536436 0.05096955
-0.22640095 -0.17517627 0.05092387
-0.22640720 -0.17498819 0.05087820
-0.22641345 -0.17480010 0.05083253
-0.22641971 -0.17461201 0.05078685
-0.22642596 -0.17442393 0.05074118
-0.22643222 -0.17423584 0.05069550
-0.22643847 -0.17404775 0.05064983
-0.22644472 -0.17385967 0.05060415
-0.22645098 -0.17367158 0.05055848
-0.22645723 -0.17348349 0.05051280
-0.22646349 -0.17329541 0.05046713
-0.22646974 -0.17310732 0.05042145
-0.22647599 -0.17291923 0.05037578
-0.22648225 -0.17273115 0.05033010
-0.22648850 -0.17254306 0.05028443
-0.22649475 -0.17235497 0.05023875
-0.22650101 -0.17216689 0.05019308
-0.22650726 -0.17197880 0.05014740
-0.22651352 -0.17179071 0.05010173
-0.22651977 -0.17160262 0.05005605
-0.22652602 -0.17141454 0.05001038
-0.22653228 -0.17122645 0.04996471
-0.22653853 -0.17103836 0.04991903
-0.22654479 -0.17085028 0.04987336
-0.22655104 -0.17066219 0.04982768
-0.22655729 -0.17047411 0.04978201
-0.22656355 -0.17028602 0.04973633
-0.22656980 -0.17009793 0.04969066
-0.22657606 -0.16990985 0.04964498
-0.22658231 -0.16972176 0.04959931
-0.22658856 -0.16953367 0.04955363
-0.22659482 -0.16934558 0.04950796
-0.22660107 -0.16915750 0.04946228
-0.22660732 -0.16896941 0.04941661
-0.22661358 -0.16878132 0.04937093
-0.22661983 -0.16859324 0.04932526
-0.22662609 -0.16840515 0.04927958
-0.22663234 -0.16821706 0.04923391
-0.22663859 -0.16802898 0.04918824
-0.22664485 -0.16784089 0.04914256
-0.22665110 -0.16765280 0.04909689
-0.22665736 -0.16746472 0.04905121
-0.22666361 -0.16727663 0.04900554
-0.23088269 -0.16584214 0.03623151
-0.23095927 -0.16571342 0.03598492
-0.23103590 -0.16558462 0.03573813
-0.23112262 -0.16546474 0.03546255
-0.23118932 -0.16532676 0.03524407
-0.23127615 -0.16520670 0.03496815
-0.23131274 -0.16504156 0.03483541
-0.23132918 -0.16485838 0.03476009
-0.23133557 -0.16466620 0.03471342
-0.23138224 -0.16450993 0.03455194
-0.23138863 -0.16431772 0.03450526
-0.23139502 -0.16412551 0.03445859
-0.23138127 -0.16391540 0.03446936
-0.22711772 -0.15780273 0.04629058
-0.22714330 -0.15763145 0.04618974
-0.22714956 -0.15744322 0.04614404
-0.22715582 -0.15725499 0.04609833
-0.22717174 -0.15707521 0.04602502
-0.22717800 -0.15688697 0.04597930
-0.22718425 -0.15669874 0.04593359
-0.22719051 -0.15651050 0.04588788
-0.22717744 -0.15630546 0.04589733
-0.22715471 -0.15609206 0.04593434
-0.22716097 -0.15590387 0.04588864
-0.22705135 -0.15561525 0.04617370
-0.22705761 -0.15542716 0.04612803
-0.22717008 -0.15533093 0.04577916
-0.22717634 -0.15514274 0.04573346
-0.23718743 -0.16115193 0.01677672
-0.23720461 -0.16096369 0.01669845
-0.23722179 -0.16077543 0.01662017
-0.23724961 -0.16059616 0.01651157
-0.23727743 -0.16041686 0.01640291
-0.23728399 -0.16021952 0.01635499
-0.23724803 -0.15998622 0.01642852
-0.23725459 -0.15978892 0.01638061
-0.23726115 -0.15959162 0.01633269
-0.23728897 -0.15941223 0.01622407
-0.23732742 -0.15924178 0.01608499
-0.23733399 -0.15904443 0.01603707
-0.23571314 -0.15204818 0.01985921
-0.23576151 -0.15188656 0.01969186
-0.23579943 -0.15171636 0.01955445
-0.23585832 -0.15156313 0.01935698
-0.23590676 -0.15140131 0.01918946
-0.23591327 -0.15120546 0.01914190
-0.23591978 -0.15100961 0.01909434
-0.23593677 -0.15082224 0.01901675
-0.23595377 -0.15063483 0.01893922
-0.23596028 -0.15043896 0.01889165
-0.23594583 -0.15022620 0.01890410
-0.23595234 -0.15003035 0.01885654
-0.22773303 -0.13511379 0.04119516
-0.22773928 -0.13492570 0.04114948
-0.22774553 -0.13473761 0.04110381
-0.22775179 -0.13454953 0.04105813
-0.22775804 -0.13436144 0.04101246
-0.22776430 -0.13417335 0.04096678
-0.22777055 -0.13398527 0.04092111
-0.22777680 -0.13379718 0.04087543
-0.22778306 -0.13360909 0.04082976
-0.22778931 -0.13342101 0.04078408
-0.22779557 -0.13323292 0.04073841
-0.22780182 -0.13304483 0.04069273
-0.22780807 -0.13285675 0.04064706
-0.22781433 -0.13266866 0.04060139
-0.22782058 -0.13248057 0.04055571
-0.22782683 -0.13229249 0.04051004
-0.22783309 -0.13210440 0.04046436
-0.22783934 -0.13191631 0.04041869
-0.22784560 -0.13172823 0.04037301
-0.22785185 -0.13154014 0.04032734
-0.22785810 -0.13135205 0.04028166
-0.22786436 -0.13116397 0.04023599
-0.22787061 -0.13097588 0.04019031
-0.22787687 -0.13078779 0.04014464
-0.22788312 -0.13059971 0.04009896
-0.22788937 -0.13041162 0.04005329
-0.22789563 -0.13022353 0.04000761
-0.22790188 -0.13003545 0.03996194
-0.22790814 -0.12984736 0.03991626
-0.22791439 -0.12965927 0.03987059
-0.23863523 -0.12319851 0.00700656
-0.23864179 -0.12300106 0.00695861
-0.23864836 -0.12280362 0.00691066
-0.23865492 -0.12260617 0.00686272
-0.23866149 -0.12240872 0.00681477
-0.23866805 -0.12221128 0.00676682
-0.23867462 -0.12201383 0.00671887
-0.23868118 -0.12181638 0.00667092
-0.23868775 -0.12161893 0.00662298
-0.23869431 -0.12142149 0.00657503
-0.23870088 -0.12122404 0.00652708
-0.23870744 -0.12102659 0.00647913
-0.23871401 -0.12082915 0.00643119
-0.23872057 -0.12063170 0.00638324
-0.23872714 -0.12043425 0.00633529
-0.23873370 -0.12023680 0.00628734
-0.23874027 -0.12003936 0.00623939
-0.23925882 -0.08737667 -0.00000195
-0.23927607 -0.08718512 -0.00008091
-0.23930404 -0.08699892 -0.00019095
-0.23934272 -0.08681806 -0.00033220
-0.23937070 -0.08663178 -0.00044232
-0.23940940 -0.08645082 -0.00058365
-0.23937309 -0.08623240 -0.00050687
-0.22606485 -0.17950151 0.05195120
-0.22607110 -0.17931342 0.05190552
-0.22607735 -0.17912534 0.05185985
-0.22608361 -0.17893725 0.05181417
-0.22608986 -0.17874916 0.05176850
-0.22609612 -0.17856108 0.05172282
-0.22610237 -0.17837299 0.05167715
-0.22610862 -0.17818490 0.05163148
-0.22611488 -0.17799682 0.05158580
-0.22612113 -0.17780873 0.05154013
-0.22612739 -0.17762064 0.05149445
-0.22613364 -0.17743255 0.05144878
-0.22613989 -0.17724447 0.05140310
-0.22614615 -0.17705638 0.05135743
-0.22615240 -0.17686829 0.05131175
-0.22615866 -0.17668021 0.05126608
-0.22618992 -0.17573978 0.05103770
-0.22619618 -0.17555169 0.05099203
-0.22620243 -0.17536360 0.05094635
-0.22620869 -0.17517551 0.05090068
-0.22621494 -0.17498743 0.05085500
-0.22622119 -0.17479934 0.05080933
-0.22622745 -0.17461125 0.05076366
-0.22623370 -0.17442317 0.05071798
-0.22623996 -0.17423508 0.05067231
-0.22624621 -0.17404699 0.05062663
-0.22625246 -0.17385891 0.05058096
-0.22625872 -0.17367082 0.05053528
-0.22626497 -0.17348273 0.05048961
-0.22627123 -0.17329465 0.05044393
-0.22627748 -0.17310656 0.05039826
-0.22628373 -0.17291847 0.05035258
-0.22628999 -0.17273039 0.05030691
-0.22629624 -0.17254230 0.05026123
-0.22630250 -0.17235421 0.05021556
-0.22630875 -0.17216613 0.05016988
-0.22631500 -0.17197804 0.05012421
-0.22632126 -0.17178995 0.05007853
-0.22632751 -0.17160186 0.05003286
-0.22633376 -0.17141378 0.04998719
-0.22634002 -0.17122569 0.04994151
-0.22634627 -0.17103760 0.04989583
-0.22635253 -0.17084952 0.04985016
-0.22635878 -0.17066143 0.04980449
-0.22636503 -0.17047335 0.04975881
-0.22637129 -0.17028526 0.04971314
-0.22637754 -0.17009717 0.04966746
-0.22638380 -0.16990909 0.04962179
-0.22639005 -0.16972100 0.04957611
-0.22639630 -0.16953291 0.04953044
-0.22640256 -0.16934482 0.04948476
-0.22640881 -0.16915674 0.04943909
-0.22641507 -0.16896865 0.04939341
-0.22642132 -0.16878056 0.04934774
-0.22642757 -0.16859248 0.04930206
-0.22643383 -0.16840439 0.04925639
-0.22644008 -0.16821630 0.04921071
-0.22644633 -0.16802822 0.04916504
-0.22645259 -0.16784013 0.04911936
-0.22645884 -0.16765204 0.04907369
-0.22646510 -0.16746396 0.04902802
-0.22647135 -0.16727587 0.04898234
-0.23068665 -0.16584136 0.03620786
-0.23077317 -0.16572166 0.03593267
-0.23085978 -0.16560186 0.03565728
-0.23094644 -0.16548198 0.03538163
-0.23102313 -0.16535300 0.03513443
-0.23108981 -0.16521493 0.03491574
-0.23112636 -0.16504977 0.03478306
-0.23113275 -0.16485760 0.03473639
-0.23114921 -0.16467442 0.03466101
-0.23118576 -0.16450915 0.03452824
-0.23119216 -0.16431694 0.03448156
-0.23118848 -0.16411577 0.03446361
-0.23118482 -0.16391462 0.03444566
-0.23113086 -0.16366884 0.03457119
-0.22689639 -0.15777656 0.04635003
-0.22691229 -0.15759685 0.04627674
-0.22691855 -0.15740865 0.04623104
-0.22693446 -0.15722890 0.04615780
-0.22696002 -0.15705757 0.04605695
-0.22697593 -0.15687778 0.04598369
-0.22698219 -0.15668955 0.04593799
-0.22696914 -0.15648450 0.04594744
-0.22695609 -0.15627950 0.04595683
-0.22694305 -0.15607452 0.04596630
-0.22685284 -0.15580258 0.04619618
-0.22687160 -0.15523831 0.04605916
-0.22687785 -0.15505023 0.04601348
-0.23698982 -0.16135747 0.01676994
-0.23699638 -0.16116018 0.01672203
-0.23700294 -0.16096289 0.01667412
-0.23702012 -0.16077463 0.01659584
-0.23704791 -0.16059536 0.01648724
-0.23707572 -0.16041606 0.01637857
-0.23708228 -0.16021872 0.01633065
-0.23705697 -0.15999440 0.01637386
-0.23705293 -0.15978812 0.01635628
-0.23707009 -0.15959978 0.01627804
-0.23708727 -0.15941144 0.01619973
-0.23712570 -0.15924098 0.01606065
-0.23713226 -0.15904363 0.01601273
-0.23547128 -0.15201329 0.01995485
-0.23551960 -0.15185169 0.01978756
-0.23556795 -0.15169003 0.01962019
-0.23560584 -0.15151980 0.01948277
-0.23565421 -0.15135802 0.01931531
-0.23568165 -0.15117919 0.01920777
-0.23570911 -0.15100033 0.01910022
-0.23571562 -0.15080449 0.01905266
-0.23573260 -0.15061711 0.01897507
-0.23573911 -0.15042126 0.01892751
-0.23574562 -0.15022541 0.01887995
-0.22754702 -0.13492494 0.04112629
-0.22755327 -0.13473685 0.04108061
-0.22755953 -0.13454877 0.04103494
-0.22756578 -0.13436068 0.04098926
-0.22757204 -0.13417259 0.04094359
-0.22757829 -0.13398451 0.04089791
-0.22758454 -0.13379642 0.04085224
-0.22759080 -0.13360833 0.04080656
-0.22759705 -0.13342025 0.04076089
-0.22760331 -0.13323216 0.04071521
-0.22760956 -0.13304407 0.04066954
-0.22761581 -0.13285599 0.04062386
-0.22762207 -0.13266790 0.04057819
-0.22762832 -0.13247981 0.04053252
-0.22767835 -0.13097512 0.04016712
-0.22768461 -0.13078703 0.04012144
-0.22769086 -0.13059895 0.04007577
-0.22769711 -0.13041086 0.04003009
-0.22770337 -0.13022277 0.03998442
-0.22770962 -0.13003469 0.03993874
-0.22771588 -0.12984660 0.03989307
-0.22772213 -0.12965851 0.03984739
-0.22772838 -0.12947042 0.03980172
-0.22773464 -0.12928234 0.03975604
-0.22774089 -0.12909425 0.03971037
-0.22774715 -0.12890616 0.03966470
-0.23843996 -0.12300027 0.00693426
-0.23844653 -0.12280282 0.00688631
-0.23845309 -0.12260537 0.00683837
-0.23845966 -0.12240793 0.00679042
-0.23846622 -0.12221048 0.00674247
-0.23847279 -0.12201303 0.00669452
-0.23847935 -0.12181558 0.00664657
-0.23848592 -0.12161814 0.00659863
-0.23849248 -0.12142069 0.00655068
-0.23849905 -0.12122324 0.00650273
-0.23850561 -0.12102579 0.00645478
-0.23851218 -0.12082835 0.00640683
-0.23851874 -0.12063090 0.00635889
-0.23852531 -0.12043345 0.00631094
-0.23853187 -0.12023601 0.00626299
-0.23853844 -0.12003856 0.00621504
-0.23854500 -0.11984111 0.00616710
-0.23855157 -0.11964366 0.00611915
-0.23855813 -0.11944622 0.00607120
-0.23900819 -0.08755119 0.00014605
-0.23906821 -0.08738128 -0.00005737
-0.23909615 -0.08719509 -0.00016741
-0.23912410 -0.08700888 -0.00027752
-0.23916276 -0.08682800 -0.00041878
-0.23924427 -0.08666853 -0.00068473
-0.23925083 -0.08647144 -0.00073259
-0.23925738 -0.08627435 -0.00078045
-0.23918897 -0.08603993 -0.00061015
-0.22587886 -0.17931266 0.05188233
-0.22588511 -0.17912458 0.05183666
-0.22589136 -0.17893649 0.05179098
-0.22589762 -0.17874840 0.05174531
-0.22590387 -0.17856032 0.05169963
-0.22591013 -0.17837223 0.05165396
-0.22591638 -0.17818414 0.05160828
-0.22592263 -0.17799606 0.05156261
-0.22592889 -0.17780797 0.05151693
-0.22593514 -0.17761988 0.05147126
-0.22594139 -0.17743179 0.05142558
-0.22594765 -0.17724371 0.05137991
-0.22595390 -0.17705562 0.05133423
-0.22599768 -0.17573902 0.05101451
-0.22600393 -0.17555093 0.05096883
-0.22601019 -0.17536284 0.05092316
-0.22601644 -0.17517475 0.05087749
-0.22602270 -0.17498667 0.05083181
-0.22602895 -0.17479858 0.05078614
-0.22603520 -0.17461049 0.05074046
-0.22604146 -0.17442241 0.05069479
-0.22604771 -0.17423432 0.05064911
-0.22605397 -0.17404623 0.05060344
-0.22606022 -0.17385815 0.05055776
-0.22606647 -0.17367006 0.05051209
-0.22607273 -0.17348197 0.05046641
-0.22607898 -0.17329389 0.05042074
-0.22609774 -0.17272963 0.05028371
-0.22610400 -0.17254154 0.05023804
-0.22611025 -0.17235345 0.05019236
-0.22611650 -0.17216537 0.05014669
-0.22612276 -0.17197728 0.05010101
-0.22612901 -0.17178919 0.05005534
-0.22613527 -0.17160110 0.05000967
-0.22614152 -0.17141302 0.04996399
-0.22614777 -0.17122493 0.04991832
-0.22615403 -0.17103684 0.04987264
-0.22616028 -0.17084876 0.04982697
-0.22616654 -0.17066067 0.04978129
-0.22617279 -0.17047259 0.04973562
-0.22617904 -0.17028450 0.04968994
-0.22618530 -0.17009641 0.04964427
-0.22619155 -0.16990833 0.04959859
-0.22619780 -0.16972024 0.04955292
-0.22620406 -0.16953215 0.04950724
-0.22621031 -0.16934406 0.04946157
-0.22621657 -0.16915598 0.04941589
-0.22622282 -0.16896789 0.04937022
-0.22622907 -0.16877980 0.04932454
-0.22623533 -0.16859172 0.04927887
-0.22624158 -0.16840363 0.04923320
-0.22624784 -0.16821554 0.04918752
-0.22625409 -0.16802746 0.04914185
-0.22626034 -0.16783937 0.04909617
-0.22626660 -0.16765128 0.04905050
-0.22627285 -0.16746320 0.04900482
-0.22627911 -0.16727511 0.04895915
-0.23057703 -0.16572088 0.03590901
-0.23067359 -0.16561011 0.03560496
-0.23076018 -0.16549022 0.03532929
-0.23085690 -0.16537926 0.03502472
-0.23091350 -0.16523217 0.03483468
-0.23092993 -0.16504900 0.03475936
-0.23095641 -0.16487480 0.03465532
-0.23096280 -0.16468261 0.03460864
-0.23099935 -0.16451735 0.03447581
-0.23100574 -0.16432513 0.03442913
-0.23100209 -0.16412395 0.03441118
-0.23098836 -0.16391385 0.03442196
-0.23097466 -0.16370379 0.03443269
-0.22659805 -0.15768268 0.04662974
-0.22670064 -0.15757916 0.04630867
-0.22661056 -0.15730651 0.04653839
-0.22670352 -0.15719437 0.04624482
-0.22672905 -0.15702306 0.04614403
-0.22675460 -0.15685174 0.04604318
-0.22676085 -0.15666353 0.04599748
-0.22674782 -0.15645851 0.04600694
-0.22674444 -0.15626193 0.04598879
-0.22665434 -0.15598990 0.04621866
-0.22666059 -0.15580182 0.04617299
-0.22668561 -0.15504947 0.04599029
-0.23684118 -0.16140197 0.01659384
-0.23679471 -0.16115938 0.01669770
-0.23680127 -0.16096209 0.01664979
-0.23682904 -0.16078285 0.01654119
-0.23684621 -0.16059456 0.01646290
-0.23687399 -0.16041527 0.01635423
-0.23688055 -0.16021793 0.01630631
-0.23687650 -0.16001159 0.01628877
-0.23687245 -0.15980528 0.01627123
-0.23687902 -0.15960796 0.01622332
-0.23689619 -0.15941960 0.01614501
-0.23692398 -0.15924018 0.01603632
-0.23694116 -0.15905178 0.01595800
-0.23525041 -0.15199545 0.01999058
-0.23529868 -0.15183386 0.01982335
-0.23531563 -0.15164669 0.01974586
-0.23536392 -0.15148499 0.01957854
-0.23539133 -0.15130626 0.01947102
-0.23541874 -0.15112748 0.01936354
-0.23543571 -0.15094019 0.01928603
-0.23546314 -0.15076135 0.01917849
-0.23549057 -0.15058248 0.01907093
-0.23549708 -0.15038667 0.01902338
-0.23547220 -0.15016552 0.01906589
-0.22737354 -0.13435992 0.04096607
-0.22737979 -0.13417183 0.04092039
-0.22738605 -0.13398375 0.04087472
-0.22739230 -0.13379566 0.04082904
-0.22739855 -0.13360757 0.04078337
-0.22740481 -0.13341949 0.04073769
-0.22741106 -0.13323140 0.04069202
-0.22741731 -0.13304331 0.04064635
-0.22742357 -0.13285523 0.04060067
-0.22742982 -0.13266714 0.04055500
-0.22749236 -0.13078627 0.04009825
-0.22749862 -0.13059819 0.04005257
-0.22750487 -0.13041010 0.04000690
-0.22751112 -0.13022201 0.03996122
-0.22751738 -0.13003393 0.03991555
-0.22752363 -0.12984584 0.03986988
-0.22752988 -0.12965775 0.03982420
-0.22753614 -0.12946967 0.03977853
-0.22754239 -0.12928158 0.03973285
-0.22754865 -0.12909349 0.03968718
-0.22755490 -0.12890540 0.03964150
-0.22756115 -0.12871732 0.03959583
-0.23812725 -0.12272331 0.00720117
-0.23813381 -0.12252597 0.00715325
-0.23825784 -0.12240713 0.00676607
-0.23826440 -0.12220968 0.00671812
-0.23827097 -0.12201223 0.00667017
-0.23827753 -0.12181479 0.00662223
-0.23828410 -0.12161734 0.00657428
-0.23829067 -0.12141989 0.00652633
-0.23829723 -0.12122244 0.00647838
-0.23830380 -0.12102500 0.00643043
-0.23831036 -0.12082755 0.00638249
-0.23831693 -0.12063010 0.00633454
-0.23832349 -0.12043265 0.00628659
-0.23833006 -0.12023521 0.00623864
-0.23833662 -0.12003776 0.00619069
-0.23834319 -0.11984031 0.00614275
-0.23834975 -0.11964287 0.00609480
-0.23835632 -0.11944542 0.00604685
-0.23836288 -0.11924797 0.00599890
-0.23836945 -0.11905052 0.00595096
-0.23886033 -0.08757743 -0.00003383
-0.23887757 -0.08738587 -0.00011274
-0.23889480 -0.08719430 -0.00019170
-0.23892274 -0.08700809 -0.00030181
-0.23896137 -0.08682721 -0.00044307
-0.23904281 -0.08666773 -0.00070904
-0.23908148 -0.08648672 -0.00085045
-0.23908804 -0.08628960 -0.00089832
-0.23909459 -0.08609248 -0.00094618
-0.23910114 -0.08589537 -0.00099405
-0.22591799 -0.17235269 0.05016917
-0.22592424 -0.17216461 0.05012349
-0.22593050 -0.17197652 0.05007782
-0.22593675 -0.17178843 0.05003214
-0.22594301 -0.17160034 0.04998647
-0.22594926 -0.17141226 0.04994080
-0.22598053 -0.17047183 0.04971242
-0.22598678 -0.17028374 0.04966675
-0.22599304 -0.17009565 0.04962107
-0.22599929 -0.16990757 0.04957540
-0.22600554 -0.16971948 0.04952972
-0.22601180 -0.16953139 0.04948405
-0.22601805 -0.16934330 0.04943837
-0.22602431 -0.16915522 0.04939270
-0.22603056 -0.16896713 0.04934702
-0.22603681 -0.16877904 0.04930135
-0.22604307 -0.16859096 0.04925567
-0.22604932 -0.16840287 0.04921000
-0.22605558 -0.16821478 0.04916432
-0.22606183 -0.16802670 0.04911865
-0.22606808 -0.16783861 0.04907298
-0.22607434 -0.16765052 0.04902730
-0.22608059 -0.16746244 0.04898163
-0.22608685 -0.16727435 0.04893595
-0.23036089 -0.16570207 0.03594253
-0.23049739 -0.16562736 0.03552404
-0.23057391 -0.16549846 0.03527696
-0.23068057 -0.16539650 0.03494372
-0.23072711 -0.16524039 0.03478233
-0.23076361 -0.16507522 0.03464957
-0.23077000 -0.16488302 0.03460290
-0.23080652 -0.16471778 0.03447006
-0.23082296 -0.16453453 0.03439466
-0.23082935 -0.16434229 0.03434798
-0.23082569 -0.16414110 0.03433002
-0.23081200 -0.16393097 0.03434080
-0.23079831 -0.16372088 0.03435159
-0.23078462 -0.16351084 0.03436233
-0.22640579 -0.15768192 0.04660654
-0.22641205 -0.15749384 0.04656087
-0.22641830 -0.15730575 0.04651519
-0.22642456 -0.15711766 0.04646952
-0.22643081 -0.15692958 0.04642384
-0.22643706 -0.15674149 0.04637817
-0.22644332 -0.15655340 0.04633249
-0.22644957 -0.15636532 0.04628682
-0.22645583 -0.15617723 0.04624114
-0.22646208 -0.15598914 0.04619547
-0.23658648 -0.16135588 0.01672128
-0.23659304 -0.16115859 0.01667337
-0.23659960 -0.16096130 0.01662546
-0.23661677 -0.16077304 0.01654717
-0.23664451 -0.16059377 0.01643857
-0.23667228 -0.16041447 0.01632990
-0.23670004 -0.16023514 0.01622122
-0.23668540 -0.16001979 0.01623405
-0.23668137 -0.15981347 0.01621652
-0.23668793 -0.15961614 0.01616860
-0.23672629 -0.15944570 0.01602951
-0.23682833 -0.15932896 0.01570796
-0.23683489 -0.15913152 0.01566001
-0.23674598 -0.15885362 0.01588573
-0.23503999 -0.15198613 0.01999642
-0.23508821 -0.15182455 0.01982917
-0.23510516 -0.15163739 0.01975169
-0.23512211 -0.15145021 0.01967421
-0.23514948 -0.15127151 0.01956675
-0.23517687 -0.15109275 0.01945934
-0.23520426 -0.15091398 0.01935181
-0.23523166 -0.15073516 0.01924432
-0.23525905 -0.15055630 0.01913683
-0.23526556 -0.15036052 0.01908928
-0.23524074 -0.15013943 0.01913169
-0.22720004 -0.13379490 0.04080585
-0.22720629 -0.13360681 0.04076017
-0.22721255 -0.13341873 0.04071450
-0.22721880 -0.13323064 0.04066882
-0.22722505 -0.13304255 0.04062315
-0.23749141 -0.13938679 0.01086523
-0.23749797 -0.13918934 0.01081728
-0.22730636 -0.13059743 0.04002938
-0.22731261 -0.13040934 0.03998370
-0.22731886 -0.13022125 0.03993803
-0.22732512 -0.13003317 0.03989235
-0.22733137 -0.12984508 0.03984668
-0.22733762 -0.12965699 0.03980100
-0.22734388 -0.12946891 0.03975533
-0.22735013 -0.12928082 0.03970966
-0.22735639 -0.12909273 0.03966398
-0.22736264 -0.12890464 0.03961831
-0.22736889 -0.12871656 0.03957263
-0.22737515 -0.12852847 0.03952696
-0.23793866 -0.12232784 0.00708099
-0.23794522 -0.12213050 0.00703307
-0.23806914 -0.12201144 0.00664582
-0.23807570 -0.12181399 0.00659788
-0.23808227 -0.12161654 0.00654993
-0.23808883 -0.12141909 0.00650198
-0.23809540 -0.12122165 0.00645403
-0.23810196 -0.12102420 0.00640608
-0.23810853 -0.12082675 0.00635814
-0.23811509 -0.12062930 0.00631019
-0.23812166 -0.12043186 0.00626224
-0.23812822 -0.12023441 0.00621429
-0.23813479 -0.12003696 0.00616634
-0.23814135 -0.11983952 0.00611840
-0.23814792 -0.11964207 0.00607045
-0.23815449 -0.11944462 0.00602250
-0.23816105 -0.11924717 0.00597455
-0.23816762 -0.11904973 0.00592661
-0.23817418 -0.11885228 0.00587866
-0.23818075 -0.11865483 0.00583071
-0.23818731 -0.11845739 0.00578276
-0.23864762 -0.08857230 0.00011883
-0.23865417 -0.08837533 0.00007100
-0.23859909 -0.08774650 0.00014530
-0.23864833 -0.08757122 -0.00002699
-0.23866557 -0.08737969 -0.00010595
-0.23869346 -0.08719350 -0.00021600
-0.23871070 -0.08700191 -0.00029497
-0.23875999 -0.08682641 -0.00046737
-0.23884135 -0.08666693 -0.00073334
-0.23885861 -0.08647521 -0.00081240
-0.23888654 -0.08628880 -0.00092262
-0.23889310 -0.08609169 -0.00097049
-0.23891036 -0.08589990 -0.00104957
-0.23890621 -0.08569745 -0.00106623
-0.22573198 -0.17216385 0.05010030
-0.22573824 -0.17197576 0.05005462
-0.22574449 -0.17178767 0.05000895
-0.22575075 -0.17159959 0.04996327
-0.22580078 -0.17009489 0.04959788
-0.22580703 -0.16990681 0.04955220
-0.22581329 -0.16971872 0.04950653
-0.22581954 -0.16953063 0.04946085
-0.22582579 -0.16934255 0.04941518
-0.22583205 -0.16915446 0.04936950
-0.22583830 -0.16896637 0.04932383
-0.22584455 -0.16877828 0.04927815
-0.22585081 -0.16859020 0.04923248
-0.22585706 -0.16840211 0.04918680
-0.22586332 -0.16821402 0.04914113
-0.22586957 -0.16802594 0.04909545
-0.22587582 -0.16783785 0.04904978
-0.22588208 -0.16764976 0.04900410
-0.22588833 -0.16746168 0.04895843
-0.22589459 -0.16727359 0.04891276
-0.23031117 -0.16563560 0.03547177
-0.23041767 -0.16553375 0.03513866
-0.23050423 -0.16541376 0.03486266
-0.23056075 -0.16526664 0.03467254
-0.23059724 -0.16510146 0.03453972
-0.23061367 -0.16491822 0.03446432
-0.23063009 -0.16473497 0.03438892
-0.23064654 -0.16455170 0.03431351
-0.23065293 -0.16435945 0.03426683
-0.23064927 -0.16415824 0.03424886
-0.23065566 -0.16396599 0.03420218
-0.23065202 -0.16376480 0.03418423
-0.23061827 -0.16353684 0.03425248
-0.23059456 -0.16331789 0.03429196
-0.22621353 -0.15768116 0.04658334
-0.22621979 -0.15749308 0.04653767
-0.22622604 -0.15730499 0.04649199
-0.22623230 -0.15711690 0.04644632
-0.22623855 -0.15692882 0.04640065
-0.22624480 -0.15674073 0.04635497
-0.22625106 -0.15655264 0.04630930
-0.22625731 -0.15636456 0.04626362
-0.22626357 -0.15617647 0.04621795
-0.22626982 -0.15598838 0.04617227
-0.23642568 -0.16078126 0.01649253
-0.23648519 -0.16062906 0.01629273
-0.23658711 -0.16051285 0.01597130
-0.23659367 -0.16031540 0.01592335
-0.23660024 -0.16011795 0.01587540
-0.23652202 -0.15984860 0.01607064
-0.23652858 -0.15965124 0.01602271
-0.23661993 -0.15952561 0.01573156
-0.23662650 -0.15932817 0.01568361
-0.23663306 -0.15913072 0.01563566
-0.23663963 -0.15893327 0.01558771
-0.23485695 -0.15179823 0.01989482
-0.23489472 -0.15162809 0.01975753
-0.23491166 -0.15144092 0.01968004
-0.23491816 -0.15124524 0.01963253
-0.23494552 -0.15106653 0.01952506
-0.23497288 -0.15088777 0.01941759
-0.23501069 -0.15071744 0.01928013
-0.23502762 -0.15053015 0.01920262
-0.23503413 -0.15033439 0.01915508
-0.23504064 -0.15013864 0.01910755
-0.23727645 -0.13978089 0.01093678
-0.23728301 -0.13958344 0.01088883
-0.23728958 -0.13938599 0.01084088
-0.23729614 -0.13918855 0.01079293
-0.23730271 -0.13899110 0.01074498
-0.22712035 -0.13040858 0.03996051
-0.22712660 -0.13022049 0.03991483
-0.22713286 -0.13003241 0.03986916
-0.22713911 -0.12984432 0.03982348
-0.22714537 -0.12965623 0.03977781
-0.22715162 -0.12946815 0.03973213
-0.22715787 -0.12928006 0.03968646
-0.22716413 -0.12909197 0.03964078
-0.22717038 -0.12890389 0.03959511
-0.22717663 -0.12871580 0.03954944
-0.22718289 -0.12852771 0.03950376
-0.23776073 -0.12193947 0.00692998
-0.23787387 -0.12181319 0.00657352
-0.23788044 -0.12161574 0.00652558
-0.23788700 -0.12141830 0.00647763
-0.23789357 -0.12122085 0.00642968
-0.23790013 -0.12102340 0.00638173
-0.23790670 -0.12082595 0.00633379
-0.23791326 -0.12062851 0.00628584
-0.23791983 -0.12043106 0.00623789
-0.23792639 -0.12023361 0.00618994
-0.23793296 -0.12003616 0.00614199
-0.23793952 -0.11983872 0.00609405
-0.23794609 -0.11964127 0.00604610
-0.23795265 -0.11944382 0.00599815
-0.23795922 -0.11924638 0.00595020
-0.23796578 -0.11904893 0.00590226
-0.23797235 -0.11885148 0.00585431
-0.23797891 -0.11865403 0.00580636
-0.23798548 -0.11845659 0.00575841
-0.23799204 -0.11825914 0.00571046
-0.23844629 -0.08857150 0.00009454
-0.23845284 -0.08837453 0.00004671
-0.23835519 -0.08772406 0.00024537
-0.23840436 -0.08754880 0.00007320
-0.23845358 -0.08737349 -0.00009910
-0.23846013 -0.08717655 -0.00014693
-0.23847735 -0.08698498 -0.00022589
-0.23851590 -0.08680413 -0.00036709
-0.23859718 -0.08664469 -0.00063301
-0.23864646 -0.08646905 -0.00080551
-0.23866369 -0.08627732 -0.00088458
-0.23869162 -0.08609089 -0.00099480
-0.23870886 -0.08589911 -0.00107388
-0.23869404 -0.08569135 -0.00105938
-0.22562728 -0.16952987 0.04943766
-0.22563353 -0.16934179 0.04939198
-0.22563979 -0.16915370 0.04934631
-0.22564604 -0.16896561 0.04930063
-0.22565229 -0.16877752 0.04925496
-0.22565855 -0.16858944 0.04920928
-0.22566480 -0.16840135 0.04916361
-0.22567106 -0.16821326 0.04911793
-0.22567731 -0.16802518 0.04907226
-0.22568356 -0.16783709 0.04902658
-0.22568982 -0.16764900 0.04898091
-0.22569607 -0.16746092 0.04893524
-0.22570233 -0.16727283 0.04888956
-0.23012491 -0.16564385 0.03541944
-0.23023134 -0.16554199 0.03508632
-0.23031783 -0.16542200 0.03481025
-0.23039436 -0.16529291 0.03456269
-0.23042080 -0.16511869 0.03445858
-0.23043723 -0.16493544 0.03438318
-0.23045364 -0.16475217 0.03430777
-0.23046003 -0.16455991 0.03426108
-0.23047646 -0.16437661 0.03418566
-0.23048285 -0.16418434 0.03413897
-0.23047921 -0.16398311 0.03412101
-0.23047558 -0.16378191 0.03410306
-0.23046192 -0.16357179 0.03411384
-0.23042820 -0.16334387 0.03418210
-0.22602127 -0.15768040 0.04656015
-0.22602753 -0.15749232 0.04651447
-0.22603378 -0.15730423 0.04646880
-0.22604004 -0.15711614 0.04642312
-0.22604629 -0.15692806 0.04637745
-0.22605254 -0.15673997 0.04633178
-0.22605880 -0.15655188 0.04628610
-0.22606505 -0.15636380 0.04624043
-0.22607131 -0.15617571 0.04619475
-0.22607756 -0.15598762 0.04614908
-0.23637872 -0.16070950 0.01599489
-0.23638529 -0.16051205 0.01594695
-0.23639185 -0.16031460 0.01589900
-0.23639842 -0.16011716 0.01585105
-0.23640498 -0.15991971 0.01580310
-0.23641155 -0.15972226 0.01575516
-0.23641812 -0.15952481 0.01570721
-0.23642468 -0.15932737 0.01565926
-0.23643125 -0.15912992 0.01561131
-0.23463616 -0.15178042 0.01993057
-0.23469471 -0.15162730 0.01973340
-0.23471163 -0.15144013 0.01965591
-0.23471814 -0.15124445 0.01960839
-0.23474548 -0.15106573 0.01950093
-0.23475199 -0.15087004 0.01945341
-0.23477933 -0.15069126 0.01934593
-0.23481711 -0.15052090 0.01920846
-0.23482362 -0.15032516 0.01916092
-0.23484054 -0.15013785 0.01908340
-0.23483664 -0.14993367 0.01906585
-0.23705493 -0.14037243 0.01105627
-0.23706150 -0.14017499 0.01100832
-0.23706806 -0.13997754 0.01096037
-0.23707463 -0.13978009 0.01091243
-0.23708119 -0.13958264 0.01086448
-0.23708776 -0.13938520 0.01081653
-0.23709432 -0.13918775 0.01076858
-0.23710089 -0.13899030 0.01072064
-0.23710745 -0.13879285 0.01067269
-0.23711402 -0.13859541 0.01062474
-0.23712058 -0.13839796 0.01057679
-0.22694060 -0.13003165 0.03984596
-0.22694685 -0.12984356 0.03980029
-0.22695311 -0.12965547 0.03975461
-0.22695936 -0.12946739 0.03970894
-0.22696561 -0.12927930 0.03966326
-0.22697187 -0.12909121 0.03961759
-0.22697812 -0.12890313 0.03957191
-0.22698437 -0.12871504 0.03952624
-0.22699063 -0.12852695 0.03948057
-0.23754836 -0.12193156 0.00693648
-0.23767206 -0.12181239 0.00654918
