ply
format ascii 1.0
element vertex 1408
property float x
property float y
property float z
end_header
-0.09266752 0.60304185 0.31909545
-0.09261499 0.60315310 0.31925729
-0.09256246 0.60326435 0.31941912
-0.09250993 0.60337560 0.31958096
-0.09245740 0.60348685 0.31974279
-0.09240487 0.60359811 0.31990463
-0.09235234 0.60370936 0.32006646
-0.09229981 0.60382061 0.32022830
-0.08696982 0.58021954 0.34133455
-0.08691978 0.58032552 0.34148872
-0.08686974 0.58043150 0.34164288
-0.08681970 0.58053748 0.34179704
-0.08676965 0.58064345 0.34195121
-0.08671961 0.58074943 0.34210537
-0.08666957 0.58085541 0.34225953
-0.08661953 0.58096139 0.34241370
-0.08656949 0.58106737 0.34256786
-0.08651945 0.58117334 0.34272202
-0.08646941 0.58127932 0.34287619
-0.08641937 0.58138530 0.34303035
-0.08636933 0.58149128 0.34318451
-0.08631929 0.58159726 0.34333868
-0.08626925 0.58170323 0.34349284
-0.08621921 0.58180921 0.34364700
-0.08616917 0.58191519 0.34380117
-0.08611913 0.58202117 0.34395533
-0.08606909 0.58212715 0.34410949
-0.08601905 0.58223312 0.34426366
-0.08566877 0.58297497 0.34534280
-0.08561873 0.58308095 0.34549696
-0.08556869 0.58318693 0.34565113
-0.08551865 0.58329290 0.34580529
-0.08546861 0.58339888 0.34595945
-0.08541857 0.58350486 0.34611362
-0.08536852 0.58361084 0.34626778
-0.08531848 0.58371681 0.34642194
-0.08526844 0.58382279 0.34657611
-0.08521840 0.58392877 0.34673027
-0.08516836 0.58403475 0.34688443
-0.08511832 0.58414073 0.34703860
-0.08506828 0.58424670 0.34719276
-0.08501824 0.58435268 0.34734692
-0.08496820 0.58445866 0.34750109
-0.08491816 0.58456464 0.34765525
-0.08486812 0.58467062 0.34780941
-0.08481808 0.58477659 0.34796358
-0.08476804 0.58488257 0.34811774
-0.08471800 0.58498855 0.34827190
-0.08466796 0.58509453 0.34842606
-0.08461792 0.58520051 0.34858023
-0.08456788 0.58530648 0.34873439
-0.08451784 0.58541246 0.34888855
-0.08446780 0.58551844 0.34904272
-0.08441776 0.58562442 0.34919688
-0.08436772 0.58573040 0.34935105
-0.08431768 0.58583637 0.34950521
-0.08426764 0.58594235 0.34965937
-0.08421760 0.58604833 0.34981354
-0.08416756 0.58615431 0.34996770
-0.08411752 0.58626028 0.35012186
-0.08406748 0.58636626 0.35027602
-0.08401744 0.58647224 0.35043019
-0.08396740 0.58657822 0.35058435
-0.08391736 0.58668420 0.35073852
-0.08386732 0.58679017 0.35089268
-0.08381727 0.58689615 0.35104684
-0.08376723 0.58700213 0.35120101
-0.08371719 0.58710811 0.35135517
-0.08366715 0.58721409 0.35150933
-0.08361711 0.58732006 0.35166349
-0.08356707 0.58742604 0.35181766
-0.08351703 0.58753202 0.35197182
-0.08346699 0.58763800 0.35212599
-0.08341695 0.58774398 0.35228015
-0.08336691 0.58784995 0.35243431
-0.08331687 0.58795593 0.35258848
-0.08326683 0.58806191 0.35274264
-0.08321679 0.58816789 0.35289680
-0.08316675 0.58827387 0.35305097
-0.08311671 0.58837984 0.35320513
-0.08306667 0.58848582 0.35335929
-0.08291655 0.58880376 0.35382178
-0.08286651 0.58890973 0.35397594
-0.08281647 0.58901571 0.35413011
-0.08276643 0.58912169 0.35428427
-0.08271639 0.58922767 0.35443844
-0.08266635 0.58933364 0.35459260
-0.08261631 0.58943962 0.35474676
-0.08256627 0.58954560 0.35490092
-0.08251623 0.58965158 0.35505509
-0.08246619 0.58975756 0.35520925
-0.08226602 0.59018147 0.35582591
-0.08221598 0.59028745 0.35598007
-0.08216594 0.59039342 0.35613423
-0.08211590 0.59049940 0.35628839
-0.08206586 0.59060538 0.35644256
-0.08201582 0.59071136 0.35659672
-0.08196578 0.59081734 0.35675089
-0.08191574 0.59092331 0.35690505
-0.08186570 0.59102929 0.35705921
-0.08181566 0.59113527 0.35721338
-0.08176562 0.59124125 0.35736754
-0.08171558 0.59134723 0.35752170
-0.08166554 0.59145320 0.35767586
-0.08161550 0.59155918 0.35783003
-0.08156546 0.59166516 0.35798419
-0.08151542 0.59177114 0.35813836
-0.08146538 0.59187711 0.35829252
-0.08141534 0.59198309 0.35844668
-0.08136530 0.59208907 0.35860085
-0.08131526 0.59219505 0.35875501
-0.08126522 0.59230103 0.35890917
-0.08121518 0.59240700 0.35906333
-0.08116514 0.59251298 0.35921750
-0.08111510 0.59261896 0.35937166
-0.08106506 0.59272494 0.35952583
-0.08101502 0.59283092 0.35967999
-0.08096497 0.59293690 0.35983415
-0.08091493 0.59304287 0.35998832
-0.08086489 0.59314885 0.36014248
-0.08081485 0.59325483 0.36029664
-0.08076481 0.59336081 0.36045081
-0.08071477 0.59346678 0.36060497
-0.08066473 0.59357276 0.36075913
-0.08061469 0.59367874 0.36091330
-0.08056465 0.59378472 0.36106746
-0.08051461 0.59389070 0.36122162
-0.08046457 0.59399667 0.36137579
-0.08041453 0.59410265 0.36152995
-0.08036449 0.59420863 0.36168411
-0.08031445 0.59431461 0.36183828
-0.08026441 0.59442059 0.36199244
-0.08021437 0.59452656 0.36214660
-0.08016433 0.59463254 0.36230077
-0.08011429 0.59473852 0.36245493
-0.08006425 0.59484450 0.36260909
-0.08001421 0.59495047 0.36276326
-0.07996417 0.59505645 0.36291742
-0.07991413 0.59516243 0.36307158
-0.07986409 0.59526841 0.36322575
-0.07981405 0.59537439 0.36337991
-0.07976401 0.59548037 0.36353407
-0.07971397 0.59558634 0.36368824
-0.07966393 0.59569232 0.36384240
-0.07961389 0.59579830 0.36399656
-0.07956385 0.59590428 0.36415073
-0.07951381 0.59601026 0.36430489
-0.07946377 0.59611623 0.36445905
-0.07941372 0.59622221 0.36461322
-0.07936368 0.59632819 0.36476738
-0.07931364 0.59643417 0.36492154
-0.07926360 0.59654014 0.36507571
-0.07921356 0.59664612 0.36522987
-0.07916352 0.59675210 0.36538403
-0.07911348 0.59685808 0.36553819
-0.07906344 0.59696406 0.36569236
-0.07901340 0.59707003 0.36584652
-0.07896336 0.59717601 0.36600069
-0.07891332 0.59728199 0.36615485
-0.07886328 0.59738797 0.36630901
-0.07881324 0.59749395 0.36646318
-0.07876320 0.59759992 0.36661734
-0.07871316 0.59770590 0.36677150
-0.07866312 0.59781188 0.36692567
-0.07861308 0.59791786 0.36707983
-0.07856304 0.59802383 0.36723399
-0.07851300 0.59812981 0.36738816
-0.07846296 0.59823579 0.36754232
-0.07841292 0.59834177 0.36769648
-0.07836288 0.59844775 0.36785065
-0.07831284 0.59855373 0.36800481
-0.07826280 0.59865970 0.36815897
-0.07821276 0.59876568 0.36831314
-0.07816272 0.59887166 0.36846730
-0.07811268 0.59897764 0.36862146
-0.07806264 0.59908362 0.36877563
-0.07801260 0.59918959 0.36892979
-0.07796255 0.59929557 0.36908395
-0.07791251 0.59940155 0.36923812
-0.07786247 0.59950753 0.36939228
-0.07781243 0.59961350 0.36954644
-0.07776239 0.59971948 0.36970061
-0.07771235 0.59982546 0.36985477
-0.07766231 0.59993144 0.37000893
-0.07761227 0.60003742 0.37016310
-0.07756223 0.60014339 0.37031726
-0.07751219 0.60024937 0.37047142
-0.07746215 0.60035535 0.37062559
-0.07741211 0.60046133 0.37077975
-0.07736207 0.60056731 0.37093391
-0.07731203 0.60067328 0.37108808
-0.07726199 0.60077926 0.37124224
-0.07721195 0.60088524 0.37139640
-0.07716191 0.60099122 0.37155057
-0.07711187 0.60109720 0.37170473
-0.07706183 0.60120317 0.37185889
-0.07701179 0.60130915 0.37201306
-0.07696175 0.60141513 0.37216722
-0.07691171 0.60152111 0.37232138
-0.07686167 0.60162709 0.37247555
-0.07681163 0.60173306 0.37262971
-0.07676159 0.60183904 0.37278387
-0.07671155 0.60194502 0.37293804
-0.07666151 0.60205100 0.37309220
-0.07661147 0.60215697 0.37324636
-0.07656142 0.60226295 0.37340053
-0.07651138 0.60236893 0.37355469
-0.07646134 0.60247491 0.37370885
-0.07641130 0.60258089 0.37386302
-0.07636126 0.60268686 0.37401718
-0.07631122 0.60279284 0.37417134
-0.07626118 0.60289882 0.37432551
-0.07621114 0.60300480 0.37447967
-0.07616110 0.60311078 0.37463383
-0.07611106 0.60321676 0.37478800
-0.09929283 0.55369622 0.30275281
-0.09924278 0.55380220 0.30290698
-0.09919274 0.55390818 0.30306114
-0.09914270 0.55401416 0.30321530
-0.09579000 0.56111468 0.31354425
-0.09573996 0.56122066 0.31369841
-0.09568992 0.56132664 0.31385257
-0.09563988 0.56143261 0.31400674
-0.09558984 0.56153859 0.31416090
-0.09553980 0.56164457 0.31431506
-0.09548976 0.56175055 0.31446923
-0.09543972 0.56185653 0.31462339
-0.09538968 0.56196250 0.31477756
-0.09533964 0.56206848 0.31493172
-0.09528960 0.56217446 0.31508588
-0.09523956 0.56228044 0.31524005
-0.09518952 0.56238642 0.31539421
-0.09513948 0.56249239 0.31554837
-0.09508944 0.56259837 0.31570254
-0.09503940 0.56270435 0.31585670
-0.09498936 0.56281033 0.31601086
-0.09423875 0.56440000 0.31832331
-0.09418871 0.56450597 0.31847748
-0.09413867 0.56461195 0.31863164
-0.09408863 0.56471793 0.31878580
-0.09403859 0.56482391 0.31893997
-0.09398855 0.56492989 0.31909413
-0.09393851 0.56503586 0.31924829
-0.09343810 0.56609564 0.32078993
-0.09338806 0.56620162 0.32094409
-0.09333802 0.56630760 0.32109825
-0.09328798 0.56641358 0.32125242
-0.09323794 0.56651956 0.32140658
-0.09318790 0.56662553 0.32156074
-0.09313786 0.56673151 0.32171491
-0.09308782 0.56683749 0.32186907
-0.09303778 0.56694347 0.32202323
-0.09467743 0.59833899 0.31225542
-0.09462490 0.59845024 0.31241726
-0.09457237 0.59856149 0.31257909
-0.09451984 0.59867275 0.31274093
-0.09446731 0.59878400 0.31290276
-0.09262873 0.60267782 0.31856701
-0.09257620 0.60278907 0.31872884
-0.09252367 0.60290033 0.31889068
-0.09247114 0.60301158 0.31905251
-0.09241861 0.60312283 0.31921435
-0.09236608 0.60323408 0.31937618
-0.09231355 0.60334533 0.31953802
-0.09226102 0.60345659 0.31969986
-0.09220849 0.60356784 0.31986169
-0.09215596 0.60367909 0.32002353
-0.09210342 0.60379034 0.32018536
-0.08678274 0.58019071 0.34129365
-0.08673270 0.58029669 0.34144781
-0.08668266 0.58040266 0.34160198
-0.08663262 0.58050864 0.34175614
-0.08658258 0.58061462 0.34191030
-0.08653254 0.58072060 0.34206447
-0.08648250 0.58082658 0.34221863
-0.08643246 0.58093255 0.34237279
-0.08638242 0.58103853 0.34252696
-0.08633238 0.58114451 0.34268112
-0.08628233 0.58125049 0.34283528
-0.08623229 0.58135647 0.34298945
-0.08618225 0.58146244 0.34314361
-0.08613221 0.58156842 0.34329777
-0.08608217 0.58167440 0.34345194
-0.08603213 0.58178038 0.34360610
-0.08598209 0.58188636 0.34376026
-0.08593205 0.58199233 0.34391443
-0.08588201 0.58209831 0.34406859
-0.08583197 0.58220429 0.34422275
-0.08548169 0.58294614 0.34530190
-0.08543165 0.58305211 0.34545606
-0.08538161 0.58315809 0.34561022
-0.08533157 0.58326407 0.34576439
-0.08528153 0.58337005 0.34591855
-0.08523149 0.58347603 0.34607271
-0.08518145 0.58358200 0.34622688
-0.08513141 0.58368798 0.34638104
-0.08508137 0.58379396 0.34653520
-0.08503133 0.58389994 0.34668937
-0.08498129 0.58400591 0.34684353
-0.08493125 0.58411189 0.34699769
-0.08488121 0.58421787 0.34715186
-0.08483117 0.58432385 0.34730602
-0.08478112 0.58442983 0.34746018
-0.08473108 0.58453580 0.34761435
-0.08468104 0.58464178 0.34776851
-0.08463100 0.58474776 0.34792267
-0.08458096 0.58485374 0.34807684
-0.08453092 0.58495972 0.34823100
-0.08448088 0.58506569 0.34838516
-0.08443084 0.58517167 0.34853933
-0.08438080 0.58527765 0.34869349
-0.08433076 0.58538363 0.34884765
-0.08428072 0.58548961 0.34900182
-0.08423068 0.58559558 0.34915598
-0.08418064 0.58570156 0.34931014
-0.08413060 0.58580754 0.34946431
-0.08408056 0.58591352 0.34961847
-0.08403052 0.58601950 0.34977263
-0.08398048 0.58612547 0.34992680
-0.08393044 0.58623145 0.35008096
-0.08388040 0.58633743 0.35023512
-0.08383036 0.58644341 0.35038929
-0.08378032 0.58654938 0.35054345
-0.08373028 0.58665536 0.35069761
-0.08368024 0.58676134 0.35085178
-0.08363020 0.58686732 0.35100594
-0.08358016 0.58697330 0.35116010
-0.08353012 0.58707927 0.35131427
-0.08348008 0.58718525 0.35146843
-0.08343004 0.58729123 0.35162259
-0.08338000 0.58739721 0.35177676
-0.08332996 0.58750319 0.35193092
-0.08327991 0.58760916 0.35208508
-0.08322987 0.58771514 0.35223925
-0.08317983 0.58782112 0.35239341
-0.08312979 0.58792710 0.35254757
-0.08307975 0.58803308 0.35270174
-0.08302971 0.58813905 0.35285590
-0.08297967 0.58824503 0.35301006
-0.08292963 0.58835101 0.35316423
-0.08287959 0.58845699 0.35331839
-0.08267943 0.58888090 0.35393504
-0.08262939 0.58898688 0.35408921
-0.08257935 0.58909285 0.35424337
-0.08252931 0.58919883 0.35439753
-0.08247927 0.58930481 0.35455170
-0.08242923 0.58941079 0.35470586
-0.08237919 0.58951677 0.35486002
-0.08232915 0.58962275 0.35501419
-0.08227911 0.58972872 0.35516835
-0.08212899 0.59004666 0.35563084
-0.08207895 0.59015263 0.35578500
-0.08202891 0.59025861 0.35593917
-0.08197887 0.59036459 0.35609333
-0.08192883 0.59047057 0.35624749
-0.08187878 0.59057655 0.35640166
-0.08177870 0.59078850 0.35670998
-0.08172866 0.59089448 0.35686415
-0.08167862 0.59100046 0.35701831
-0.08162858 0.59110644 0.35717247
-0.08157854 0.59121241 0.35732664
-0.08152850 0.59131839 0.35748080
-0.08147846 0.59142437 0.35763496
-0.08142842 0.59153035 0.35778913
-0.08137838 0.59163632 0.35794329
-0.08132834 0.59174230 0.35809745
-0.08127830 0.59184828 0.35825162
-0.08122826 0.59195426 0.35840578
-0.08117822 0.59206024 0.35855994
-0.08112818 0.59216622 0.35871411
-0.08107814 0.59227219 0.35886827
-0.08102810 0.59237817 0.35902243
-0.08097806 0.59248415 0.35917660
-0.08092802 0.59259013 0.35933076
-0.08087798 0.59269611 0.35948492
-0.08082794 0.59280208 0.35963909
-0.08077790 0.59290806 0.35979325
-0.08072786 0.59301404 0.35994741
-0.08067782 0.59312002 0.36010158
-0.08062778 0.59322599 0.36025574
-0.08057774 0.59333197 0.36040990
-0.08052770 0.59343795 0.36056407
-0.08047766 0.59354393 0.36071823
-0.08042762 0.59364991 0.36087239
-0.08037758 0.59375588 0.36102656
-0.08032753 0.59386186 0.36118072
-0.08027749 0.59396784 0.36133488
-0.08022745 0.59407382 0.36148905
-0.08017741 0.59417980 0.36164321
-0.08012737 0.59428577 0.36179737
-0.08007733 0.59439175 0.36195154
-0.08002729 0.59449773 0.36210570
-0.07997725 0.59460371 0.36225986
-0.07992721 0.59470968 0.36241403
-0.07987717 0.59481566 0.36256819
-0.07982713 0.59492164 0.36272235
-0.07977709 0.59502762 0.36287652
-0.07972705 0.59513360 0.36303068
-0.07967701 0.59523958 0.36318484
-0.07962697 0.59534555 0.36333901
-0.07957693 0.59545153 0.36349317
-0.07952689 0.59555751 0.36364733
-0.07947685 0.59566349 0.36380150
-0.07942681 0.59576947 0.36395566
-0.07937677 0.59587544 0.36410982
-0.07932673 0.59598142 0.36426399
-0.07927669 0.59608740 0.36441815
-0.07922665 0.59619338 0.36457231
-0.07917661 0.59629935 0.36472648
-0.07912657 0.59640533 0.36488064
-0.07907653 0.59651131 0.36503480
-0.07902649 0.59661729 0.36518897
-0.07897645 0.59672327 0.36534313
-0.07892641 0.59682924 0.36549729
-0.07887636 0.59693522 0.36565146
-0.07882632 0.59704120 0.36580562
-0.07877628 0.59714718 0.36595978
-0.07872624 0.59725316 0.36611395
-0.07867620 0.59735913 0.36626811
-0.07862616 0.59746511 0.36642227
-0.07857612 0.59757109 0.36657644
-0.07852608 0.59767707 0.36673060
-0.07847604 0.59778305 0.36688477
-0.07842600 0.59788902 0.36703893
-0.07837596 0.59799500 0.36719309
-0.07832592 0.59810098 0.36734725
-0.07827588 0.59820696 0.36750142
-0.07822584 0.59831294 0.36765558
-0.07817580 0.59841891 0.36780974
-0.07812576 0.59852489 0.36796391
-0.07807572 0.59863087 0.36811807
-0.07802568 0.59873685 0.36827224
-0.07797564 0.59884282 0.36842640
-0.07792560 0.59894880 0.36858056
-0.07787556 0.59905478 0.36873472
-0.07782552 0.59916076 0.36888889
-0.07777548 0.59926674 0.36904305
-0.07772544 0.59937271 0.36919721
-0.07767540 0.59947869 0.36935138
-0.07762536 0.59958467 0.36950554
-0.07757532 0.59969065 0.36965971
-0.07752528 0.59979663 0.36981387
-0.07747523 0.59990261 0.36996803
-0.07742519 0.60000858 0.37012219
-0.07737515 0.60011456 0.37027636
-0.07732511 0.60022054 0.37043052
-0.07727507 0.60032652 0.37058468
-0.07722503 0.60043249 0.37073885
-0.07717499 0.60053847 0.37089301
-0.07712495 0.60064445 0.37104717
-0.07707491 0.60075043 0.37120134
-0.07702487 0.60085641 0.37135550
-0.07697483 0.60096238 0.37150966
-0.07692479 0.60106836 0.37166383
-0.07687475 0.60117434 0.37181799
-0.07682471 0.60128032 0.37197215
-0.07677467 0.60138630 0.37212632
-0.07672463 0.60149227 0.37228048
-0.07667459 0.60159825 0.37243464
-0.07662455 0.60170423 0.37258881
-0.07657451 0.60181021 0.37274297
-0.07652447 0.60191618 0.37289713
-0.07647443 0.60202216 0.37305130
-0.07642439 0.60212814 0.37320546
-0.07637435 0.60223412 0.37335963
-0.07632431 0.60234010 0.37351379
-0.07627427 0.60244607 0.37366795
-0.07622423 0.60255205 0.37382211
-0.07617419 0.60265803 0.37397628
-0.07612415 0.60276401 0.37413044
-0.07607411 0.60286999 0.37428460
-0.07602406 0.60297597 0.37443877
-0.07597402 0.60308194 0.37459293
-0.07592398 0.60318792 0.37474710
-0.09950607 0.55281957 0.30147860
-0.09945603 0.55292554 0.30163277
-0.09910575 0.55366739 0.30271191
-0.09905571 0.55377337 0.30286607
-0.09900567 0.55387935 0.30302024
-0.09895563 0.55398532 0.30317440
-0.09675385 0.55864835 0.30995759
-0.09670381 0.55875433 0.31011175
-0.09560292 0.56108585 0.31350335
-0.09555288 0.56119183 0.31365751
-0.09550284 0.56129780 0.31381167
-0.09545280 0.56140378 0.31396584
-0.09540276 0.56150976 0.31412000
-0.09535272 0.56161574 0.31427416
-0.09530268 0.56172171 0.31442833
-0.09525264 0.56182769 0.31458249
-0.09520260 0.56193367 0.31473665
-0.09515256 0.56203965 0.31489082
-0.09510252 0.56214563 0.31504498
-0.09505248 0.56225160 0.31519914
-0.09500244 0.56235758 0.31535331
-0.09495240 0.56246356 0.31550747
-0.09490236 0.56256954 0.31566163
-0.09485232 0.56267552 0.31581580
-0.09480228 0.56278149 0.31596996
-0.09475224 0.56288747 0.31612412
-0.09445199 0.56352334 0.31704910
-0.09440195 0.56362932 0.31720327
-0.09405167 0.56437116 0.31828241
-0.09400163 0.56447714 0.31843657
-0.09395159 0.56458312 0.31859074
-0.09390155 0.56468910 0.31874490
-0.09385151 0.56479507 0.31889906
-0.09380147 0.56490105 0.31905323
-0.09375143 0.56500703 0.31920739
-0.09330107 0.56596083 0.32059486
-0.09325103 0.56606681 0.32074902
-0.09320099 0.56617279 0.32090319
-0.09315095 0.56627877 0.32105735
-0.09310091 0.56638474 0.32121151
-0.09305087 0.56649072 0.32136568
-0.09300083 0.56659670 0.32151984
-0.09295078 0.56670268 0.32167400
-0.09290074 0.56680866 0.32182817
-0.09285070 0.56691463 0.32198233
-0.09448104 0.59830872 0.31221248
-0.09442851 0.59841997 0.31237432
-0.09437598 0.59853122 0.31253615
-0.09432345 0.59864248 0.31269799
-0.09243235 0.60264755 0.31852407
-0.09237982 0.60275880 0.31868590
-0.09232729 0.60287006 0.31884774
-0.09227476 0.60298131 0.31900958
-0.09222222 0.60309256 0.31917141
-0.09216969 0.60320381 0.31933325
-0.09211716 0.60331507 0.31949508
-0.09206463 0.60342632 0.31965692
-0.09201210 0.60353757 0.31981875
-0.09195957 0.60364882 0.31998059
-0.09190704 0.60376007 0.32014242
-0.08659566 0.58016188 0.34125275
-0.08654562 0.58026785 0.34140691
-0.08649558 0.58037383 0.34156107
-0.08644554 0.58047981 0.34171524
-0.08639550 0.58058579 0.34186940
-0.08634546 0.58069176 0.34202356
-0.08629542 0.58079774 0.34217773
-0.08624538 0.58090372 0.34233189
-0.08619534 0.58100970 0.34248605
-0.08614530 0.58111568 0.34264022
-0.08609526 0.58122165 0.34279438
-0.08604522 0.58132763 0.34294855
-0.08599518 0.58143361 0.34310271
-0.08594514 0.58153959 0.34325687
-0.08589510 0.58164557 0.34341103
-0.08584506 0.58175154 0.34356520
-0.08569493 0.58206948 0.34402769
-0.08564489 0.58217546 0.34418185
-0.08559485 0.58228143 0.34433601
-0.08549477 0.58249339 0.34464434
-0.08544473 0.58259937 0.34479850
-0.08534465 0.58281132 0.34510683
-0.08529461 0.58291730 0.34526099
-0.08524457 0.58302328 0.34541516
-0.08519453 0.58312926 0.34556932
-0.08514449 0.58323524 0.34572348
-0.08509445 0.58334121 0.34587765
-0.08504441 0.58344719 0.34603181
-0.08499437 0.58355317 0.34618598
-0.08494433 0.58365915 0.34634014
-0.08489429 0.58376512 0.34649430
-0.08484425 0.58387110 0.34664846
-0.08479421 0.58397708 0.34680263
-0.08474417 0.58408306 0.34695679
-0.08469413 0.58418904 0.34711095
-0.08464409 0.58429501 0.34726512
-0.08459405 0.58440099 0.34741928
-0.08454401 0.58450697 0.34757345
-0.08449397 0.58461295 0.34772761
-0.08444393 0.58471893 0.34788177
-0.08439389 0.58482490 0.34803593
-0.08434385 0.58493088 0.34819010
-0.08429381 0.58503686 0.34834426
-0.08424377 0.58514284 0.34849842
-0.08419372 0.58524882 0.34865259
-0.08414368 0.58535479 0.34880675
-0.08409364 0.58546077 0.34896091
-0.08404360 0.58556675 0.34911508
-0.08399356 0.58567273 0.34926924
-0.08394352 0.58577871 0.34942340
-0.08389348 0.58588468 0.34957757
-0.08384344 0.58599066 0.34973173
-0.08379340 0.58609664 0.34988589
-0.08374336 0.58620262 0.35004006
-0.08369332 0.58630859 0.35019422
-0.08364328 0.58641457 0.35034838
-0.08359324 0.58652055 0.35050255
-0.08354320 0.58662653 0.35065671
-0.08349316 0.58673251 0.35081087
-0.08344312 0.58683848 0.35096504
-0.08339308 0.58694446 0.35111920
-0.08334304 0.58705044 0.35127336
-0.08329300 0.58715642 0.35142753
-0.08324296 0.58726240 0.35158169
-0.08319292 0.58736837 0.35173585
-0.08314288 0.58747435 0.35189002
-0.08309284 0.58758033 0.35204418
-0.08304280 0.58768631 0.35219834
-0.08299276 0.58779229 0.35235251
-0.08294272 0.58789826 0.35250667
-0.08289268 0.58800424 0.35266083
-0.08284264 0.58811022 0.35281500
-0.08279259 0.58821620 0.35296916
-0.08274256 0.58832217 0.35312332
-0.08269251 0.58842815 0.35327749
-0.08239227 0.58906402 0.35420247
-0.08234223 0.58917000 0.35435663
-0.08229219 0.58927598 0.35451079
-0.08224215 0.58938196 0.35466496
-0.08219211 0.58948793 0.35481912
-0.08214207 0.58959391 0.35497328
-0.08209203 0.58969989 0.35512745
-0.08194191 0.59001782 0.35558994
-0.08189187 0.59012380 0.35574410
-0.08184183 0.59022978 0.35589826
-0.08179179 0.59033576 0.35605243
-0.08174175 0.59044173 0.35620659
-0.08154159 0.59086565 0.35682324
-0.08149155 0.59097162 0.35697741
-0.08144151 0.59107760 0.35713157
-0.08139147 0.59118358 0.35728573
-0.08134143 0.59128956 0.35743990
-0.08129139 0.59139553 0.35759406
-0.08124134 0.59150151 0.35774822
-0.08119130 0.59160749 0.35790239
-0.08114126 0.59171347 0.35805655
-0.08109122 0.59181945 0.35821071
-0.08104118 0.59192543 0.35836488
-0.08099114 0.59203140 0.35851904
-0.08094110 0.59213738 0.35867321
-0.08089106 0.59224336 0.35882737
-0.08084102 0.59234934 0.35898153
-0.08079098 0.59245532 0.35913569
-0.08074094 0.59256129 0.35928986
-0.08069090 0.59266727 0.35944402
-0.08064086 0.59277325 0.35959818
-0.08059082 0.59287923 0.35975235
-0.08054078 0.59298520 0.35990651
-0.08049074 0.59309118 0.36006068
-0.08044070 0.59319716 0.36021484
-0.08039066 0.59330314 0.36036900
-0.08034062 0.59340912 0.36052316
-0.08029058 0.59351509 0.36067733
-0.08024054 0.59362107 0.36083149
-0.08019050 0.59372705 0.36098565
-0.08014046 0.59383303 0.36113982
-0.08009042 0.59393901 0.36129398
-0.08004038 0.59404498 0.36144815
-0.07999034 0.59415096 0.36160231
-0.07994030 0.59425694 0.36175647
-0.07989026 0.59436292 0.36191063
-0.07984022 0.59446889 0.36206480
-0.07979017 0.59457487 0.36221896
-0.07974013 0.59468085 0.36237312
-0.07969009 0.59478683 0.36252729
-0.07964005 0.59489281 0.36268145
-0.07959001 0.59499879 0.36283562
-0.07953997 0.59510476 0.36298978
-0.07948993 0.59521074 0.36314394
-0.07943989 0.59531672 0.36329810
-0.07938985 0.59542270 0.36345227
-0.07933981 0.59552867 0.36360643
-0.07928977 0.59563465 0.36376059
-0.07923973 0.59574063 0.36391476
-0.07918969 0.59584661 0.36406892
-0.07913965 0.59595259 0.36422309
-0.07908961 0.59605856 0.36437725
-0.07903957 0.59616454 0.36453141
-0.07898953 0.59627052 0.36468557
-0.07893949 0.59637650 0.36483974
-0.07888945 0.59648248 0.36499390
-0.07883941 0.59658846 0.36514807
-0.07878937 0.59669443 0.36530223
-0.07873933 0.59680041 0.36545639
-0.07868929 0.59690639 0.36561055
-0.07863925 0.59701237 0.36576472
-0.07858921 0.59711834 0.36591888
-0.07853917 0.59722432 0.36607304
-0.07848913 0.59733030 0.36622721
-0.07843909 0.59743628 0.36638137
-0.07838904 0.59754226 0.36653554
-0.07833900 0.59764823 0.36668970
-0.07828896 0.59775421 0.36684386
-0.07823892 0.59786019 0.36699802
-0.07818888 0.59796617 0.36715219
-0.07813884 0.59807215 0.36730635
-0.07808880 0.59817812 0.36746051
-0.07803876 0.59828410 0.36761468
-0.07798872 0.59839008 0.36776884
-0.07793868 0.59849606 0.36792301
-0.07788864 0.59860203 0.36807717
-0.07783860 0.59870801 0.36823133
-0.07778856 0.59881399 0.36838549
-0.07773852 0.59891997 0.36853966
-0.07768848 0.59902595 0.36869382
-0.07763844 0.59913192 0.36884798
-0.07758840 0.59923790 0.36900215
-0.07753836 0.59934388 0.36915631
-0.07748832 0.59944986 0.36931048
-0.07743828 0.59955584 0.36946464
-0.07738824 0.59966182 0.36961880
-0.07733820 0.59976779 0.36977296
-0.07728816 0.59987377 0.36992713
-0.07723812 0.59997975 0.37008129
-0.07718808 0.60008573 0.37023545
-0.07713804 0.60019170 0.37038962
-0.07708800 0.60029768 0.37054378
-0.07703796 0.60040366 0.37069795
-0.07698792 0.60050964 0.37085211
-0.07693787 0.60061562 0.37100627
-0.07688783 0.60072159 0.37116043
-0.07683779 0.60082757 0.37131460
-0.07678775 0.60093355 0.37146876
-0.07673771 0.60103953 0.37162293
-0.07668767 0.60114551 0.37177709
-0.07663763 0.60125148 0.37193125
-0.07658759 0.60135746 0.37208542
-0.07653755 0.60146344 0.37223958
-0.07648751 0.60156942 0.37239374
-0.07643747 0.60167539 0.37254790
-0.07638743 0.60178137 0.37270207
-0.07633739 0.60188735 0.37285623
-0.07628735 0.60199333 0.37301040
-0.07623731 0.60209931 0.37316456
-0.07618727 0.60220529 0.37331872
-0.07613723 0.60231126 0.37347289
-0.07608719 0.60241724 0.37362705
-0.07603715 0.60252322 0.37378121
-0.07598711 0.60262920 0.37393537
-0.07593707 0.60273518 0.37408954
-0.07588703 0.60284115 0.37424370
-0.07583699 0.60294713 0.37439787
-0.07578695 0.60305311 0.37455203
-0.07573691 0.60315909 0.37470619
-0.09931899 0.55279073 0.30143770
-0.09926895 0.55289671 0.30159186
-0.09921891 0.55300269 0.30174603
-0.09886863 0.55374453 0.30282517
-0.09881859 0.55385051 0.30297933
-0.09876855 0.55395649 0.30313350
-0.09686702 0.55798365 0.30899171
-0.09681698 0.55808963 0.30914587
-0.09676693 0.55819561 0.30930003
-0.09671689 0.55830159 0.30945420
-0.09666685 0.55840756 0.30960836
-0.09661681 0.55851354 0.30976252
-0.09656677 0.55861952 0.30991669
-0.09651673 0.55872550 0.31007085
-0.09646669 0.55883148 0.31022501
-0.09541585 0.56105701 0.31346244
-0.09536580 0.56116299 0.31361661
-0.09531576 0.56126897 0.31377077
-0.09526572 0.56137495 0.31392493
-0.09521568 0.56148092 0.31407910
-0.09516564 0.56158690 0.31423326
-0.09511560 0.56169288 0.31438742
-0.09506556 0.56179886 0.31454159
-0.09501552 0.56190484 0.31469575
-0.09496548 0.56201081 0.31484991
-0.09491544 0.56211679 0.31500408
-0.09486540 0.56222277 0.31515824
-0.09481536 0.56232875 0.31531240
-0.09476532 0.56243473 0.31546657
-0.09471528 0.56254070 0.31562073
-0.09466524 0.56264668 0.31577489
-0.09461520 0.56275266 0.31592906
-0.09456516 0.56285864 0.31608322
-0.09451512 0.56296462 0.31623738
-0.09426492 0.56349451 0.31700820
-0.09421488 0.56360048 0.31716236
-0.09416484 0.56370646 0.31731653
-0.09386459 0.56434233 0.31824151
-0.09381455 0.56444831 0.31839567
-0.09376451 0.56455428 0.31854983
-0.09371447 0.56466026 0.31870400
-0.09366443 0.56476624 0.31885816
-0.09361439 0.56487222 0.31901232
-0.09356435 0.56497820 0.31916649
-0.09336419 0.56540211 0.31978314
-0.09331415 0.56550809 0.31993730
-0.09326411 0.56561406 0.32009147
-0.09321407 0.56572004 0.32024563
-0.09316403 0.56582602 0.32039979
-0.09311399 0.56593200 0.32055396
-0.09306395 0.56603798 0.32070812
-0.09301391 0.56614395 0.32086228
-0.09296387 0.56624993 0.32101645
-0.09291383 0.56635591 0.32117061
-0.09286379 0.56646189 0.32132477
-0.09281375 0.56656787 0.32147894
-0.09276371 0.56667384 0.32163310
-0.09271367 0.56677982 0.32178726
-0.09266363 0.56688580 0.32194143
-0.09261359 0.56699178 0.32209559
-0.09428465 0.59827845 0.31216954
-0.09423212 0.59838970 0.31233138
-0.09417959 0.59850096 0.31249322
-0.09223596 0.60261728 0.31848113
-0.09218343 0.60272854 0.31864297
-0.09213090 0.60283979 0.31880480
-0.09207836 0.60295104 0.31896664
-0.09202583 0.60306229 0.31912847
-0.09197330 0.60317354 0.31929031
-0.09192077 0.60328480 0.31945214
-0.09186824 0.60339605 0.31961398
-0.09181571 0.60350730 0.31977581
-0.09176318 0.60361855 0.31993765
-0.09171065 0.60372980 0.32009949
-0.08640858 0.58013304 0.34121185
-0.08635854 0.58023902 0.34136601
-0.08630850 0.58034500 0.34152017
-0.08625846 0.58045097 0.34167433
-0.08620842 0.58055695 0.34182850
-0.08615838 0.58066293 0.34198266
-0.08610834 0.58076891 0.34213683
-0.08605830 0.58087489 0.34229099
-0.08600826 0.58098086 0.34244515
-0.08595822 0.58108684 0.34259932
-0.08590818 0.58119282 0.34275348
-0.08585814 0.58129880 0.34290764
-0.08580810 0.58140478 0.34306180
-0.08575806 0.58151075 0.34321597
-0.08570802 0.58161673 0.34337013
-0.08545782 0.58214662 0.34414095
-0.08540778 0.58225260 0.34429511
-0.08535774 0.58235858 0.34444928
-0.08530770 0.58246456 0.34460344
-0.08525766 0.58257053 0.34475760
-0.08520762 0.58267651 0.34491176
-0.08515757 0.58278249 0.34506593
-0.08510753 0.58288847 0.34522009
-0.08505749 0.58299445 0.34537426
-0.08500745 0.58310042 0.34552842
-0.08495741 0.58320640 0.34568258
-0.08490737 0.58331238 0.34583675
-0.08485733 0.58341836 0.34599091
-0.08480729 0.58352434 0.34614507
-0.08475725 0.58363031 0.34629923
-0.08470721 0.58373629 0.34645340
-0.08465717 0.58384227 0.34660756
-0.08460713 0.58394825 0.34676173
-0.08455709 0.58405422 0.34691589
-0.08450705 0.58416020 0.34707005
-0.08445701 0.58426618 0.34722422
-0.08440697 0.58437216 0.34737838
-0.08435693 0.58447814 0.34753254
-0.08430689 0.58458411 0.34768670
-0.08425685 0.58469009 0.34784087
-0.08420681 0.58479607 0.34799503
-0.08415677 0.58490205 0.34814920
-0.08410673 0.58500802 0.34830336
-0.08405669 0.58511400 0.34845752
-0.08400665 0.58521998 0.34861168
-0.08395661 0.58532596 0.34876585
-0.08390657 0.58543194 0.34892001
-0.08385653 0.58553792 0.34907417
-0.08380649 0.58564389 0.34922834
-0.08375645 0.58574987 0.34938250
-0.08370640 0.58585585 0.34953666
-0.08365636 0.58596183 0.34969083
-0.08360632 0.58606780 0.34984499
-0.08355628 0.58617378 0.34999915
-0.08350624 0.58627976 0.35015332
-0.08345620 0.58638574 0.35030748
-0.08340616 0.58649172 0.35046164
-0.08335612 0.58659769 0.35061581
-0.08330608 0.58670367 0.35076997
-0.08325604 0.58680965 0.35092413
-0.08320600 0.58691563 0.35107830
-0.08315596 0.58702161 0.35123246
-0.08310592 0.58712758 0.35138663
-0.08305588 0.58723356 0.35154079
-0.08300584 0.58733954 0.35169495
-0.08295580 0.58744552 0.35184911
-0.08290576 0.58755150 0.35200328
-0.08285572 0.58765747 0.35215744
-0.08280568 0.58776345 0.35231160
-0.08275564 0.58786943 0.35246577
-0.08270560 0.58797541 0.35261993
-0.08265556 0.58808138 0.35277409
-0.08260552 0.58818736 0.35292826
-0.08255548 0.58829334 0.35308242
-0.08250544 0.58839932 0.35323659
-0.08215515 0.58914117 0.35431573
-0.08210511 0.58924714 0.35446989
-0.08205507 0.58935312 0.35462406
-0.08200503 0.58945910 0.35477822
-0.08195499 0.58956508 0.35493238
-0.08190495 0.58967105 0.35508654
-0.08185491 0.58977703 0.35524071
-0.08180487 0.58988301 0.35539487
-0.08175483 0.58998899 0.35554903
-0.08170479 0.59009497 0.35570320
-0.08165475 0.59020094 0.35585736
-0.08160471 0.59030692 0.35601153
-0.08155467 0.59041290 0.35616569
-0.08130447 0.59094279 0.35693651
-0.08125443 0.59104877 0.35709067
-0.08120439 0.59115474 0.35724483
-0.08115435 0.59126072 0.35739900
-0.08110431 0.59136670 0.35755316
-0.08105427 0.59147268 0.35770732
-0.08100423 0.59157866 0.35786148
-0.08095419 0.59168464 0.35801565
-0.08090415 0.59179061 0.35816981
-0.08085411 0.59189659 0.35832398
-0.08080407 0.59200257 0.35847814
-0.08075402 0.59210855 0.35863230
-0.08070398 0.59221452 0.35878647
-0.08065394 0.59232050 0.35894063
-0.08060390 0.59242648 0.35909479
-0.08055386 0.59253246 0.35924895
-0.08050382 0.59263844 0.35940312
-0.08045378 0.59274441 0.35955728
-0.08040374 0.59285039 0.35971145
-0.08035370 0.59295637 0.35986561
-0.08030366 0.59306235 0.36001977
-0.08025362 0.59316833 0.36017393
-0.08020358 0.59327431 0.36032810
-0.08015354 0.59338028 0.36048226
-0.08010350 0.59348626 0.36063642
-0.08005346 0.59359224 0.36079059
-0.08000342 0.59369822 0.36094475
-0.07995338 0.59380419 0.36109892
-0.07990334 0.59391017 0.36125308
-0.07985330 0.59401615 0.36140724
-0.07980326 0.59412213 0.36156140
-0.07975322 0.59422811 0.36171557
-0.07970318 0.59433408 0.36186973
-0.07965314 0.59444006 0.36202389
-0.07960310 0.59454604 0.36217806
-0.07955306 0.59465202 0.36233222
-0.07950302 0.59475800 0.36248639
-0.07945298 0.59486397 0.36264055
-0.07940294 0.59496995 0.36279471
-0.07935290 0.59507593 0.36294887
-0.07930285 0.59518191 0.36310304
-0.07925281 0.59528788 0.36325720
-0.07920277 0.59539386 0.36341137
-0.07915273 0.59549984 0.36356553
-0.07910269 0.59560582 0.36371969
-0.07905265 0.59571180 0.36387386
-0.07900261 0.59581777 0.36402802
-0.07895257 0.59592375 0.36418218
-0.07890253 0.59602973 0.36433634
-0.07885249 0.59613571 0.36449051
-0.07880245 0.59624169 0.36464467
-0.07875241 0.59634767 0.36479884
-0.07870237 0.59645364 0.36495300
-0.07865233 0.59655962 0.36510716
-0.07860229 0.59666560 0.36526133
-0.07855225 0.59677158 0.36541549
-0.07850221 0.59687755 0.36556965
-0.07845217 0.59698353 0.36572381
-0.07840213 0.59708951 0.36587798
-0.07835209 0.59719549 0.36603214
-0.07830205 0.59730147 0.36618631
-0.07825201 0.59740744 0.36634047
-0.07820197 0.59751342 0.36649463
-0.07815193 0.59761940 0.36664880
-0.07810189 0.59772538 0.36680296
-0.07805185 0.59783136 0.36695712
-0.07800181 0.59793733 0.36711128
-0.07795177 0.59804331 0.36726545
-0.07790173 0.59814929 0.36741961
-0.07785168 0.59825527 0.36757378
-0.07780164 0.59836124 0.36772794
-0.07775160 0.59846722 0.36788210
-0.07770156 0.59857320 0.36803627
-0.07765152 0.59867918 0.36819043
-0.07760148 0.59878516 0.36834459
-0.07755144 0.59889113 0.36849875
-0.07750140 0.59899711 0.36865292
-0.07745136 0.59910309 0.36880708
-0.07740132 0.59920907 0.36896125
-0.07735128 0.59931505 0.36911541
-0.07730124 0.59942103 0.36926957
-0.07725120 0.59952700 0.36942374
-0.07720116 0.59963298 0.36957790
-0.07715112 0.59973896 0.36973206
-0.07710108 0.59984494 0.36988623
-0.07705104 0.59995091 0.37004039
-0.07700100 0.60005689 0.37019455
-0.07695096 0.60016287 0.37034872
-0.07690092 0.60026885 0.37050288
-0.07685088 0.60037483 0.37065704
-0.07680084 0.60048080 0.37081121
-0.07675080 0.60058678 0.37096537
-0.07670076 0.60069276 0.37111953
-0.07665072 0.60079874 0.37127370
-0.07660068 0.60090472 0.37142786
-0.07655064 0.60101069 0.37158202
-0.07650060 0.60111667 0.37173619
-0.07645056 0.60122265 0.37189035
-0.07640051 0.60132863 0.37204451
-0.07635047 0.60143460 0.37219867
-0.07630043 0.60154058 0.37235284
-0.07625039 0.60164656 0.37250700
-0.07620035 0.60175254 0.37266117
-0.07615031 0.60185852 0.37281533
-0.07610027 0.60196450 0.37296949
-0.07605023 0.60207047 0.37312366
-0.07600019 0.60217645 0.37327782
-0.07595015 0.60228243 0.37343198
-0.07590011 0.60238841 0.37358614
-0.07585007 0.60249438 0.37374031
-0.07580003 0.60260036 0.37389447
-0.07574999 0.60270634 0.37404864
-0.07569995 0.60281232 0.37420280
-0.07564991 0.60291830 0.37435696
-0.07559987 0.60302427 0.37451113
-0.07554983 0.60313025 0.37466529
-0.09923200 0.55254994 0.30108847
-0.09918196 0.55265592 0.30124264
-0.09913192 0.55276190 0.30139680
-0.09908188 0.55286788 0.30155096
-0.09903184 0.55297386 0.30170513
-0.09898180 0.55307983 0.30185929
-0.09873160 0.55360972 0.30263011
-0.09868156 0.55371570 0.30278427
-0.09863152 0.55382168 0.30293843
-0.09858148 0.55392766 0.30309260
-0.09672999 0.55784884 0.30879664
-0.09667995 0.55795482 0.30895080
-0.09662990 0.55806080 0.30910497
-0.09657986 0.55816678 0.30925913
-0.09652982 0.55827275 0.30941330
-0.09647978 0.55837873 0.30956746
-0.09642974 0.55848471 0.30972162
-0.09637970 0.55859069 0.30987579
-0.09632966 0.55869667 0.31002995
-0.09627962 0.55880264 0.31018411
-0.09522877 0.56102818 0.31342154
-0.09517873 0.56113416 0.31357571
-0.09512869 0.56124014 0.31372987
-0.09507865 0.56134611 0.31388403
-0.09502861 0.56145209 0.31403820
-0.09497857 0.56155807 0.31419236
-0.09492853 0.56166405 0.31434652
-0.09487849 0.56177003 0.31450069
-0.09482845 0.56187600 0.31465485
-0.09477841 0.56198198 0.31480901
-0.09472837 0.56208796 0.31496318
-0.09467833 0.56219394 0.31511734
-0.09462829 0.56229992 0.31527150
-0.09457825 0.56240589 0.31542567
-0.09452821 0.56251187 0.31557983
-0.09447817 0.56261785 0.31573399
-0.09442813 0.56272383 0.31588816
-0.09437809 0.56282980 0.31604232
-0.09432805 0.56293578 0.31619648
-0.09427801 0.56304176 0.31635065
-0.09407785 0.56346567 0.31696730
-0.09402781 0.56357165 0.31712146
-0.09397777 0.56367763 0.31727563
-0.09392773 0.56378361 0.31742979
-0.09367752 0.56431350 0.31820061
-0.09362748 0.56441947 0.31835477
-0.09357744 0.56452545 0.31850893
-0.09352740 0.56463143 0.31866310
-0.09347736 0.56473741 0.31881726
-0.09342732 0.56484339 0.31897142
-0.09337728 0.56494936 0.31912559
-0.09322716 0.56526730 0.31958808
-0.09317712 0.56537328 0.31974224
-0.09312708 0.56547925 0.31989640
-0.09307704 0.56558523 0.32005057
-0.09302700 0.56569121 0.32020473
-0.09297696 0.56579719 0.32035889
-0.09292692 0.56590317 0.32051306
-0.09287688 0.56600914 0.32066722
-0.09282684 0.56611512 0.32082138
-0.09277680 0.56622110 0.32097555
-0.09272676 0.56632708 0.32112971
-0.09267672 0.56643305 0.32128387
-0.09262668 0.56653903 0.32143804
-0.09257664 0.56664501 0.32159220
-0.09252660 0.56675099 0.32174636
-0.09247656 0.56685697 0.32190053
-0.09242652 0.56696294 0.32205469
-0.09408827 0.59824818 0.31212661
-0.09403574 0.59835943 0.31228844
-0.09202058 0.60197540 0.31858676
-0.09203957 0.60258701 0.31843819
-0.09198704 0.60269827 0.31860003
-0.09193451 0.60280952 0.31876186
-0.09188198 0.60292077 0.31892370
-0.09182945 0.60303202 0.31908554
-0.09177692 0.60314328 0.31924737
-0.09172439 0.60325453 0.31940921
-0.09167186 0.60336578 0.31957104
-0.09161933 0.60347703 0.31973288
-0.09156680 0.60358828 0.31989471
-0.08622151 0.58010421 0.34117094
-0.08617147 0.58021019 0.34132511
-0.08612143 0.58031616 0.34147927
-0.08607139 0.58042214 0.34163343
-0.08602135 0.58052812 0.34178760
-0.08597131 0.58063410 0.34194176
-0.08592127 0.58074008 0.34209592
-0.08587123 0.58084605 0.34225009
-0.08582119 0.58095203 0.34240425
-0.08577115 0.58105801 0.34255841
-0.08572111 0.58116399 0.34271258
-0.08567107 0.58126997 0.34286674
-0.08562103 0.58137594 0.34302090
-0.08557099 0.58148192 0.34317507
-0.08527075 0.58211779 0.34410005
-0.08522071 0.58222377 0.34425421
-0.08517067 0.58232975 0.34440838
-0.08512063 0.58243572 0.34456254
-0.08507059 0.58254170 0.34471670
-0.08502054 0.58264768 0.34487086
-0.08497050 0.58275366 0.34502503
-0.08492046 0.58285963 0.34517919
-0.08487042 0.58296561 0.34533335
-0.08482038 0.58307159 0.34548752
-0.08477034 0.58317757 0.34564168
-0.08472030 0.58328355 0.34579584
-0.08467026 0.58338952 0.34595001
-0.08462022 0.58349550 0.34610417
-0.08457018 0.58360148 0.34625833
-0.08452014 0.58370746 0.34641250
-0.08447010 0.58381344 0.34656666
-0.08442006 0.58391941 0.34672082
-0.08437002 0.58402539 0.34687499
-0.08431998 0.58413137 0.34702915
-0.08426994 0.58423735 0.34718331
-0.08421990 0.58434333 0.34733748
-0.08416986 0.58444930 0.34749164
-0.08411982 0.58455528 0.34764580
-0.08406978 0.58466126 0.34779997
-0.08401974 0.58476724 0.34795413
-0.08396970 0.58487321 0.34810829
-0.08391966 0.58497919 0.34826246
-0.08386962 0.58508517 0.34841662
-0.08381958 0.58519115 0.34857078
-0.08376954 0.58529713 0.34872495
-0.08371950 0.58540310 0.34887911
-0.08366946 0.58550908 0.34903327
-0.08361942 0.58561506 0.34918744
-0.08356937 0.58572104 0.34934160
-0.08351933 0.58582702 0.34949576
-0.08346929 0.58593299 0.34964993
-0.08341925 0.58603897 0.34980409
-0.08336921 0.58614495 0.34995825
-0.08331917 0.58625093 0.35011242
-0.08326913 0.58635691 0.35026658
-0.08321909 0.58646288 0.35042074
-0.08316905 0.58656886 0.35057491
-0.08311901 0.58667484 0.35072907
-0.08306897 0.58678082 0.35088323
-0.08301893 0.58688680 0.35103740
-0.08296889 0.58699277 0.35119156
-0.08291885 0.58709875 0.35134572
-0.08286881 0.58720473 0.35149989
-0.08281877 0.58731071 0.35165405
-0.08276873 0.58741668 0.35180821
-0.08271869 0.58752266 0.35196238
-0.08266865 0.58762864 0.35211654
-0.08261861 0.58773462 0.35227070
-0.08256857 0.58784060 0.35242487
-0.08251853 0.58794657 0.35257903
-0.08246849 0.58805255 0.35273319
-0.08241845 0.58815853 0.35288736
-0.08236841 0.58826451 0.35304152
-0.08231837 0.58837049 0.35319568
-0.08196808 0.58911233 0.35427483
-0.08191804 0.58921831 0.35442899
-0.08186800 0.58932429 0.35458315
-0.08181796 0.58943027 0.35473732
-0.08176792 0.58953624 0.35489148
-0.08171788 0.58964222 0.35504564
-0.08166784 0.58974820 0.35519981
-0.08161780 0.58985418 0.35535397
-0.08156776 0.58996015 0.35550813
-0.08151772 0.59006613 0.35566230
-0.08146768 0.59017211 0.35581646
-0.08141764 0.59027809 0.35597062
-0.08136760 0.59038407 0.35612479
-0.08111740 0.59091396 0.35689561
-0.08106736 0.59101993 0.35704977
-0.08101732 0.59112591 0.35720393
-0.08096728 0.59123189 0.35735809
-0.08091724 0.59133787 0.35751226
-0.08086720 0.59144385 0.35766642
-0.08081716 0.59154982 0.35782058
-0.08076712 0.59165580 0.35797475
-0.08071708 0.59176178 0.35812891
-0.08066703 0.59186776 0.35828308
-0.08061699 0.59197374 0.35843724
-0.08056695 0.59207972 0.35859140
-0.08051691 0.59218569 0.35874556
-0.08046687 0.59229167 0.35889973
-0.08041683 0.59239765 0.35905389
-0.08036679 0.59250363 0.35920805
-0.08031675 0.59260960 0.35936222
-0.08026671 0.59271558 0.35951638
-0.08021667 0.59282156 0.35967055
-0.08016663 0.59292754 0.35982471
-0.08011659 0.59303352 0.35997887
-0.08006655 0.59313949 0.36013303
-0.08001651 0.59324547 0.36028720
-0.07996647 0.59335145 0.36044136
-0.07991643 0.59345743 0.36059552
-0.07986639 0.59356341 0.36074969
-0.07981635 0.59366938 0.36090385
-0.07976631 0.59377536 0.36105801
-0.07971627 0.59388134 0.36121218
-0.07966623 0.59398732 0.36136634
-0.07961619 0.59409329 0.36152050
-0.07956615 0.59419927 0.36167467
-0.07951611 0.59430525 0.36182883
-0.07946607 0.59441123 0.36198299
-0.07941603 0.59451721 0.36213716
-0.07936599 0.59462318 0.36229132
-0.07931595 0.59472916 0.36244548
-0.07926591 0.59483514 0.36259965
-0.07921586 0.59494112 0.36275381
-0.07916583 0.59504710 0.36290797
-0.07911578 0.59515307 0.36306214
-0.07906574 0.59525905 0.36321630
-0.07901570 0.59536503 0.36337047
-0.07896566 0.59547101 0.36352463
-0.07891562 0.59557699 0.36367879
-0.07886558 0.59568296 0.36383295
-0.07881554 0.59578894 0.36398712
-0.07876550 0.59589492 0.36414128
-0.07871546 0.59600090 0.36429544
-0.07866542 0.59610688 0.36444961
-0.07861538 0.59621285 0.36460377
-0.07856534 0.59631883 0.36475794
-0.07851530 0.59642481 0.36491210
-0.07846526 0.59653079 0.36506626
-0.07841522 0.59663677 0.36522042
-0.07836518 0.59674274 0.36537459
-0.07831514 0.59684872 0.36552875
-0.07826510 0.59695470 0.36568291
-0.07821506 0.59706068 0.36583708
-0.07816502 0.59716665 0.36599124
-0.07811498 0.59727263 0.36614541
-0.07806494 0.59737861 0.36629957
-0.07801490 0.59748459 0.36645373
-0.07796486 0.59759057 0.36660789
-0.07791482 0.59769655 0.36676206
-0.07786478 0.59780252 0.36691622
-0.07781474 0.59790850 0.36707038
-0.07776470 0.59801448 0.36722455
-0.07771466 0.59812046 0.36737871
-0.07766461 0.59822643 0.36753288
-0.07761457 0.59833241 0.36768704
-0.07756453 0.59843839 0.36784120
-0.07751449 0.59854437 0.36799536
-0.07746445 0.59865035 0.36814953
-0.07741441 0.59875632 0.36830369
-0.07736437 0.59886230 0.36845785
-0.07731433 0.59896828 0.36861202
-0.07726429 0.59907426 0.36876618
-0.07721425 0.59918024 0.36892035
-0.07716421 0.59928621 0.36907451
-0.07711417 0.59939219 0.36922867
-0.07706413 0.59949817 0.36938283
-0.07701409 0.59960415 0.36953700
-0.07696405 0.59971013 0.36969116
-0.07691401 0.59981610 0.36984533
-0.07686397 0.59992208 0.36999949
-0.07681393 0.60002806 0.37015365
-0.07676389 0.60013404 0.37030782
-0.07671385 0.60024001 0.37046198
-0.07666381 0.60034599 0.37061614
-0.07661377 0.60045197 0.37077030
-0.07656373 0.60055795 0.37092447
-0.07651369 0.60066393 0.37107863
-0.07646365 0.60076991 0.37123280
-0.07641361 0.60087588 0.37138696
-0.07636357 0.60098186 0.37154112
-0.07631353 0.60108784 0.37169529
-0.07626349 0.60119382 0.37184945
-0.07621344 0.60129979 0.37200361
-0.07616340 0.60140577 0.37215777
-0.07611336 0.60151175 0.37231194
-0.07606332 0.60161773 0.37246610
-0.07601328 0.60172371 0.37262027
-0.07596324 0.60182968 0.37277443
-0.07591320 0.60193566 0.37292859
-0.07586316 0.60204164 0.37308275
-0.07581312 0.60214762 0.37323692
-0.07576308 0.60225360 0.37339108
-0.07571304 0.60235957 0.37354524
-0.07566300 0.60246555 0.37369941
-0.07561296 0.60257153 0.37385357
-0.07556292 0.60267751 0.37400774
-0.07551288 0.60278349 0.37416190
-0.07546284 0.60288946 0.37431606
-0.07541280 0.60299544 0.37447022
-0.07536276 0.60310142 0.37462439
-0.10232671 0.55955241 0.28899187
-0.09904492 0.55252111 0.30104757
-0.09899489 0.55262709 0.30120173
-0.09894484 0.55273307 0.30135590
-0.09889480 0.55283904 0.30151006
-0.09884476 0.55294502 0.30166423
-0.09879472 0.55305100 0.30181839
-0.09854452 0.55358089 0.30258920
-0.09849448 0.55368687 0.30274337
-0.09844444 0.55379285 0.30289753
-0.09839440 0.55389882 0.30305169
-0.09654291 0.55782001 0.30875574
-0.09649287 0.55792599 0.30890990
-0.09644283 0.55803196 0.30906407
-0.09639279 0.55813794 0.30921823
-0.09634275 0.55824392 0.30937239
-0.09629271 0.55834990 0.30952656
-0.09624267 0.55845588 0.30968072
-0.09619263 0.55856185 0.30983488
-0.09614258 0.55866783 0.30998905
-0.09609254 0.55877381 0.31014321
-0.09509174 0.56089337 0.31322648
-0.09504170 0.56099935 0.31338064
-0.09499166 0.56110532 0.31353480
-0.09494162 0.56121130 0.31368897
-0.09489158 0.56131728 0.31384313
-0.09484154 0.56142326 0.31399729
-0.09479150 0.56152924 0.31415146
-0.09474146 0.56163521 0.31430562
-0.09469141 0.56174119 0.31445978
-0.09464137 0.56184717 0.31461395
-0.09459133 0.56195315 0.31476811
-0.09454129 0.56205913 0.31492227
-0.09449125 0.56216510 0.31507644
-0.09444121 0.56227108 0.31523060
-0.09439117 0.56237706 0.31538476
-0.09434113 0.56248304 0.31553893
-0.09429109 0.56258901 0.31569309
-0.09424105 0.56269499 0.31584725
-0.09419101 0.56280097 0.31600142
-0.09414097 0.56290695 0.31615558
-0.09409093 0.56301293 0.31630974
-0.09404089 0.56311890 0.31646391
-0.09399085 0.56322488 0.31661807
-0.09394081 0.56333086 0.31677223
-0.09389077 0.56343684 0.31692640
-0.09384073 0.56354282 0.31708056
-0.09379069 0.56364879 0.31723472
-0.09374065 0.56375477 0.31738889
-0.09349045 0.56428466 0.31815970
-0.09344041 0.56439064 0.31831387
-0.09339037 0.56449662 0.31846803
-0.09334033 0.56460260 0.31862219
-0.09329029 0.56470857 0.31877636
-0.09324025 0.56481455 0.31893052
-0.09319020 0.56492053 0.31908468
-0.09314016 0.56502651 0.31923885
-0.09309012 0.56513249 0.31939301
-0.09304008 0.56523846 0.31954717
-0.09299004 0.56534444 0.31970134
-0.09294000 0.56545042 0.31985550
-0.09288996 0.56555640 0.32000966
-0.09283992 0.56566237 0.32016383
-0.09278988 0.56576835 0.32031799
-0.09273984 0.56587433 0.32047215
-0.09268980 0.56598031 0.32062632
-0.09263976 0.56608629 0.32078048
-0.09258972 0.56619226 0.32093464
-0.09253968 0.56629824 0.32108881
-0.09248964 0.56640422 0.32124297
-0.09243960 0.56651020 0.32139713
-0.09238956 0.56661618 0.32155130
-0.09233952 0.56672215 0.32170546
-0.09228948 0.56682813 0.32185962
-0.09223944 0.56693411 0.32201379
-0.09218940 0.56704009 0.32216795
-0.09183229 0.60200070 0.31850940
-0.09184319 0.60255675 0.31839526
-0.09179066 0.60266800 0.31855709
-0.09173813 0.60277925 0.31871893
-0.09168560 0.60289050 0.31888076
-0.09163307 0.60300175 0.31904260
-0.09158054 0.60311301 0.31920443
-0.09152800 0.60322426 0.31936627
-0.09147547 0.60333551 0.31952810
-0.09142294 0.60344676 0.31968994
-0.09137041 0.60355802 0.31985178
-0.08603444 0.58007537 0.34113004
-0.08598440 0.58018135 0.34128420
-0.08593435 0.58028733 0.34143837
-0.08588431 0.58039331 0.34159253
-0.08583427 0.58049929 0.34174669
-0.08578423 0.58060526 0.34190086
-0.08573419 0.58071124 0.34205502
-0.08568415 0.58081722 0.34220919
-0.08563411 0.58092320 0.34236335
-0.08558407 0.58102918 0.34251751
-0.08553403 0.58113515 0.34267168
-0.08548399 0.58124113 0.34282584
-0.08543395 0.58134711 0.34298000
-0.08508367 0.58208896 0.34405915
-0.08503363 0.58219493 0.34421331
-0.08498359 0.58230091 0.34436747
-0.08493355 0.58240689 0.34452163
-0.08488351 0.58251287 0.34467580
-0.08483347 0.58261884 0.34482996
-0.08478343 0.58272482 0.34498412
-0.08473339 0.58283080 0.34513829
