ply
format ascii 1.0
element vertex 1408
property float x
property float y
property float z
end_header
0.08875446 -0.57393343 1.04446966
0.08871751 -0.57406685 1.04432080
0.08868056 -0.57420028 1.04417194
0.08864361 -0.57433370 1.04402308
0.08860666 -0.57446713 1.04387422
0.08856971 -0.57460056 1.04372536
0.08853276 -0.57473398 1.04357650
0.08849580 -0.57486741 1.04342764
0.08845885 -0.57500083 1.04327878
0.08842190 -0.57513426 1.04312992
0.08838495 -0.57526769 1.04298106
0.08834800 -0.57540111 1.04283220
0.08831105 -0.57553454 1.04268334
0.08827410 -0.57566796 1.04253448
0.08823714 -0.57580139 1.04238562
0.08820019 -0.57593482 1.04223676
0.08816324 -0.57606824 1.04208790
0.08812629 -0.57620167 1.04193904
0.08808934 -0.57633510 1.04179018
0.08805239 -0.57646852 1.04164132
0.08801544 -0.57660195 1.04149246
0.08797849 -0.57673537 1.04134360
0.08794153 -0.57686880 1.04119474
0.08790458 -0.57700223 1.04104588
0.08786763 -0.57713565 1.04089702
0.08783068 -0.57726908 1.04074816
0.08779373 -0.57740250 1.04059930
0.08775678 -0.57753593 1.04045044
0.08771983 -0.57766935 1.04030158
0.08768288 -0.57780278 1.04015272
0.08764592 -0.57793621 1.04000386
0.08760897 -0.57806963 1.03985500
0.08757202 -0.57820306 1.03970614
0.10140736 -0.49575666 1.09573335
0.10137175 -0.49588526 1.09558988
0.10133613 -0.49601385 1.09544641
0.09781002 -0.49849843 1.08158825
0.09777482 -0.49862553 1.08144645
0.09773962 -0.49875263 1.08130465
0.09770442 -0.49887973 1.08116284
0.09766922 -0.49900683 1.08102104
0.09763402 -0.49913393 1.08087924
0.09759882 -0.49926103 1.08073743
0.09756362 -0.49938813 1.08059563
0.09752842 -0.49951523 1.08045383
0.09749322 -0.49964233 1.08031203
0.09745802 -0.49976943 1.08017022
0.09742282 -0.49989653 1.08002842
0.09882462 -0.50604919 1.08529591
0.09879435 -0.50620051 1.08517254
0.09878564 -0.50644237 1.08513033
0.09879849 -0.50677494 1.08516929
0.09877900 -0.50697179 1.08508647
0.09877028 -0.50721403 1.08504421
0.09873459 -0.50734291 1.08490043
0.09696523 -0.50154884 1.07818498
0.09693003 -0.50167594 1.07804318
0.09689483 -0.50180304 1.07790138
0.09685963 -0.50193014 1.07775958
0.09682443 -0.50205724 1.07761777
0.09678923 -0.50218434 1.07747597
0.09675403 -0.50231144 1.07733417
0.09671883 -0.50243854 1.07719236
0.09668363 -0.50256564 1.07705056
0.09664843 -0.50269274 1.07690876
0.10213496 -0.52627407 1.09754218
0.10209801 -0.52640750 1.09739332
0.10206106 -0.52654092 1.09724446
0.10202411 -0.52667435 1.09709560
0.10198716 -0.52680777 1.09694674
0.10195020 -0.52694120 1.09679788
0.10191325 -0.52707463 1.09664902
0.10187630 -0.52720805 1.09650016
0.10183935 -0.52734148 1.09635130
0.10180240 -0.52747490 1.09620244
0.10176545 -0.52760833 1.09605358
0.10172850 -0.52774176 1.09590472
0.10169155 -0.52787518 1.09575586
0.10165459 -0.52800861 1.09560700
0.10161764 -0.52814203 1.09545814
0.10158069 -0.52827546 1.09530928
0.10154374 -0.52840889 1.09516042
0.10150679 -0.52854231 1.09501156
0.10065691 -0.53161111 1.09158778
0.10061996 -0.53174454 1.09143893
0.10058301 -0.53187796 1.09129007
0.10054605 -0.53201139 1.09114121
0.10050910 -0.53214481 1.09099235
0.10047215 -0.53227824 1.09084349
0.10043520 -0.53241167 1.09069463
0.10039825 -0.53254509 1.09054577
0.10036130 -0.53267852 1.09039691
0.09486578 -0.51007381 1.06969532
0.09484595 -0.51026864 1.06961129
0.09483129 -0.51048614 1.06954661
0.09481145 -0.51068110 1.06946254
0.09477620 -0.51080839 1.06932051
0.09475122 -0.51098088 1.06921712
0.09472109 -0.51113076 1.06909437
0.09469098 -0.51128070 1.06897165
0.09466085 -0.51143061 1.06884888
0.09464614 -0.51164845 1.06878401
0.09461087 -0.51177580 1.06864192
0.09459099 -0.51197106 1.06855768
0.09456599 -0.51214374 1.06845416
0.09453071 -0.51227112 1.06831204
0.09399550 -0.51358626 1.06617685
0.09396025 -0.51371355 1.06603483
0.09393009 -0.51386355 1.06591196
0.09389484 -0.51399085 1.06576993
0.09469959 -0.51901316 1.06874344
0.09468475 -0.51923434 1.06867796
0.09465433 -0.51938598 1.06855406
0.09464467 -0.51963051 1.06850799
0.09458399 -0.52224576 1.06818244
0.09456390 -0.52244488 1.06809718
0.09456974 -0.52276114 1.06810933
0.09453403 -0.52289007 1.06796548
0.09448795 -0.52297213 1.06778267
0.09445224 -0.52310105 1.06763884
0.09442691 -0.52327687 1.06753394
0.09440160 -0.52345276 1.06742906
0.09436589 -0.52358171 1.06728520
0.09433535 -0.52373412 1.06716079
0.09429964 -0.52386307 1.06701692
0.09395387 -0.53583457 1.06526092
0.09400146 -0.53635517 1.06542913
0.09404385 -0.53685212 1.06557793
0.09406534 -0.53725191 1.06564830
0.09407108 -0.53757858 1.06565970
0.09412937 -0.53815088 1.06586801
0.09413516 -0.53847833 1.06587952
0.09412517 -0.53873224 1.06583189
0.09410465 -0.53893707 1.06574482
0.09408412 -0.53914193 1.06565771
0.09404783 -0.53927300 1.06551148
0.09401680 -0.53942872 1.06538498
0.09398050 -0.53955979 1.06523874
0.09394944 -0.53971550 1.06511218
0.09392365 -0.53989589 1.06500530
0.09324026 -0.53698675 1.06243433
0.09321974 -0.53719022 1.06234726
0.09318365 -0.53732054 1.06220186
0.09314756 -0.53745087 1.06205646
0.09306485 -0.53736164 1.06173639
0.09300807 -0.53739437 1.06151351
0.09297200 -0.53752461 1.06136820
0.09294111 -0.53767926 1.06124227
0.09290504 -0.53780951 1.06109695
0.09286897 -0.53793976 1.06095164
0.09283823 -0.53869715 1.06080594
0.09283313 -0.53897432 1.06077668
0.09279702 -0.53910470 1.06063122
0.09274026 -0.53913715 1.06040837
0.09267318 -0.53912058 1.06014691
0.09407958 -0.55536093 1.06509073
0.09404263 -0.55549436 1.06494187
0.09400567 -0.55562778 1.06479301
0.09396872 -0.55576121 1.06464415
0.09393177 -0.55589463 1.06449529
0.09389482 -0.55602806 1.06434643
0.09358785 -0.55641400 1.06313429
0.09358288 -0.55670277 1.06310507
0.09359921 -0.55709547 1.06315555
0.09356226 -0.55722889 1.06300669
0.09352531 -0.55736232 1.06285784
0.09348836 -0.55749575 1.06270898
0.09345140 -0.55762917 1.06256012
0.09341445 -0.55776260 1.06241126
0.09337750 -0.55789602 1.06226240
0.09334055 -0.55802945 1.06211354
0.09330360 -0.55816288 1.06196468
0.09326665 -0.55829630 1.06181582
0.09322970 -0.55842973 1.06166696
0.09319274 -0.55856315 1.06151810
0.09315579 -0.55869658 1.06136924
0.09311884 -0.55883001 1.06122038
0.09308189 -0.55896343 1.06107152
0.09304494 -0.55909686 1.06092266
0.09300799 -0.55923028 1.06077380
0.09297104 -0.55936371 1.06062494
0.09293409 -0.55949714 1.06047608
0.09289713 -0.55963056 1.06032722
0.09286018 -0.55976399 1.06017836
0.09282323 -0.55989741 1.06002950
0.09278628 -0.56003084 1.05988064
0.09274933 -0.56016427 1.05973178
0.09271238 -0.56029769 1.05958292
0.09267543 -0.56043112 1.05943406
0.09263848 -0.56056454 1.05928520
0.09186250 -0.56336649 1.05615914
0.09182555 -0.56349992 1.05601028
0.09178860 -0.56363334 1.05586142
0.09175164 -0.56376677 1.05571256
0.09171469 -0.56390019 1.05556370
0.09167774 -0.56403362 1.05541484
0.09164079 -0.56416704 1.05526598
0.09160384 -0.56430047 1.05511712
0.09156689 -0.56443390 1.05496826
0.09152994 -0.56456732 1.05481940
0.09149298 -0.56470075 1.05467054
0.09145603 -0.56483417 1.05452168
0.09141908 -0.56496760 1.05437283
0.09138213 -0.56510103 1.05422396
0.09134518 -0.56523445 1.05407511
0.09130823 -0.56536788 1.05392624
0.09127128 -0.56550130 1.05377739
0.09123433 -0.56563473 1.05362852
0.09119737 -0.56576816 1.05347967
0.09116042 -0.56590158 1.05333081
0.09112347 -0.56603501 1.05318195
0.09108652 -0.56616843 1.05303309
0.09104957 -0.56630186 1.05288423
0.09101262 -0.56643529 1.05273537
0.09097567 -0.56656871 1.05258651
0.09093872 -0.56670214 1.05243765
0.09090176 -0.56683556 1.05228879
0.09086481 -0.56696899 1.05213993
0.09082786 -0.56710241 1.05199107
0.09079091 -0.56723584 1.05184221
0.09075396 -0.56736927 1.05169335
0.09071701 -0.56750269 1.05154449
0.09068006 -0.56763612 1.05139563
0.09064311 -0.56776954 1.05124677
0.09060615 -0.56790297 1.05109791
0.09056920 -0.56803640 1.05094905
0.09053225 -0.56816982 1.05080019
0.09049530 -0.56830325 1.05065133
0.09045835 -0.56843668 1.05050247
0.09042140 -0.56857010 1.05035361
0.09038445 -0.56870353 1.05020475
0.09034749 -0.56883695 1.05005589
0.08506778 -0.54450884 1.03025564
0.08503258 -0.54463594 1.03011384
0.08499738 -0.54476304 1.02997204
0.08496218 -0.54489014 1.02983023
0.08492698 -0.54501724 1.02968843
0.08489179 -0.54514434 1.02954663
0.08485659 -0.54527144 1.02940482
0.08482139 -0.54539854 1.02926302
0.08478619 -0.54552564 1.02912122
0.08475099 -0.54565275 1.02897941
0.08471579 -0.54577984 1.02883761
0.08468059 -0.54590694 1.02869581
0.08464539 -0.54603405 1.02855401
0.08461019 -0.54616115 1.02841221
0.08457499 -0.54628825 1.02827040
0.08934981 -0.57243946 1.04603667
0.08931286 -0.57257288 1.04588781
0.08927591 -0.57270631 1.04573895
0.08923895 -0.57283973 1.04559009
0.08920200 -0.57297316 1.04544123
0.08916505 -0.57310659 1.04529237
0.08912810 -0.57324001 1.04514351
0.08909115 -0.57337344 1.04499465
0.08905420 -0.57350686 1.04484579
0.08901725 -0.57364029 1.04469693
0.08898030 -0.57377371 1.04454807
0.08894334 -0.57390714 1.04439921
0.08890639 -0.57404057 1.04425035
0.08886944 -0.57417399 1.04410149
0.08883249 -0.57430742 1.04395263
0.08879554 -0.57444085 1.04380377
0.08875859 -0.57457427 1.04365491
0.08872164 -0.57470770 1.04350605
0.08868468 -0.57484112 1.04335719
0.08864773 -0.57497455 1.04320833
0.08861078 -0.57510798 1.04305947
0.08857383 -0.57524140 1.04291061
0.08853688 -0.57537483 1.04276175
0.08849993 -0.57550825 1.04261289
0.08846298 -0.57564168 1.04246404
0.08842603 -0.57577511 1.04231517
0.08838907 -0.57590853 1.04216632
0.08835212 -0.57604196 1.04201745
0.08831517 -0.57617538 1.04186860
0.08827822 -0.57630881 1.04171973
0.08824127 -0.57644224 1.04157088
0.08820432 -0.57657566 1.04142202
0.08816737 -0.57670909 1.04127316
0.08813042 -0.57684251 1.04112430
0.08809346 -0.57697594 1.04097544
0.08805651 -0.57710936 1.04082658
0.08801956 -0.57724279 1.04067772
0.08798261 -0.57737622 1.04052886
0.08794566 -0.57750964 1.04038000
0.08790871 -0.57764307 1.04023114
0.08787176 -0.57777649 1.04008228
0.08783480 -0.57790992 1.03993342
0.08779785 -0.57804335 1.03978456
0.08776090 -0.57817677 1.03963570
0.10155378 -0.49585993 1.09552199
0.09823633 -0.49758368 1.08251377
0.09820113 -0.49771078 1.08237197
0.09816593 -0.49783788 1.08223016
0.09798993 -0.49847339 1.08152115
0.09795473 -0.49860049 1.08137935
0.09791953 -0.49872759 1.08123754
0.09788434 -0.49885469 1.08109574
0.09784914 -0.49898179 1.08095394
0.09781394 -0.49910889 1.08081213
0.09777874 -0.49923599 1.08067033
0.09774354 -0.49936309 1.08052853
0.09898199 -0.50619777 1.08512487
0.09897872 -0.50646227 1.08510293
0.09898085 -0.50674957 1.08510127
0.09896139 -0.50694641 1.08501845
0.09893651 -0.50712060 1.08491528
0.09710995 -0.50165090 1.07797608
0.09707475 -0.50177800 1.07783428
0.09703955 -0.50190510 1.07769247
0.09700435 -0.50203220 1.07755067
0.09696915 -0.50215930 1.07740887
0.09693395 -0.50228641 1.07726707
0.09689875 -0.50241351 1.07712526
0.09686355 -0.50254061 1.07698346
0.10236079 -0.52611436 1.09762060
0.10232383 -0.52624779 1.09747174
0.10228688 -0.52638121 1.09732288
0.10224993 -0.52651464 1.09717402
0.10221298 -0.52664806 1.09702516
0.10217603 -0.52678149 1.09687630
0.10213908 -0.52691492 1.09672744
0.10210213 -0.52704834 1.09657858
0.10206518 -0.52718177 1.09642972
0.10202822 -0.52731519 1.09628086
0.10199127 -0.52744862 1.09613200
0.10195432 -0.52758205 1.09598314
0.10191737 -0.52771547 1.09583428
0.10188042 -0.52784890 1.09568542
0.10184347 -0.52798232 1.09553656
0.10180652 -0.52811575 1.09538770
0.10176957 -0.52824918 1.09523884
0.10173261 -0.52838260 1.09508998
0.10169566 -0.52851603 1.09494112
0.10165871 -0.52864945 1.09479226
0.10095664 -0.53118455 1.09196392
0.10091968 -0.53131797 1.09181506
0.10088273 -0.53145140 1.09166620
0.10084578 -0.53158483 1.09151734
0.10080883 -0.53171825 1.09136848
0.10077188 -0.53185168 1.09121962
0.10073493 -0.53198510 1.09107076
0.10069798 -0.53211853 1.09092190
0.10066103 -0.53225196 1.09077304
0.10062407 -0.53238538 1.09062418
0.10058712 -0.53251881 1.09047532
0.10055017 -0.53265223 1.09032646
0.10051322 -0.53278566 1.09017760
0.09504589 -0.51004874 1.06962814
0.09502609 -0.51024357 1.06954411
0.09501146 -0.51046107 1.06947941
0.09499165 -0.51065602 1.06939533
0.09496156 -0.51080592 1.06927264
0.09493658 -0.51097836 1.06916920
0.09490648 -0.51112830 1.06904648
0.09487636 -0.51127820 1.06892371
0.09484625 -0.51142816 1.06880096
0.09483154 -0.51164595 1.06873604
0.09480142 -0.51179595 1.06861325
0.09477644 -0.51196862 1.06850973
0.09475145 -0.51214130 1.06840619
0.09473159 -0.51233667 1.06832190
0.09420584 -0.51341120 1.06623250
0.09417570 -0.51356118 1.06610964
0.09414555 -0.51371117 1.06598677
0.09411541 -0.51386122 1.06586392
0.09409036 -0.51403395 1.06576016
0.09406022 -0.51418403 1.06563728
0.09484585 -0.51911631 1.06853231
0.09483104 -0.51933751 1.06846679
0.09475081 -0.52215022 1.06805596
0.09473072 -0.52234923 1.06797064
0.09474705 -0.52271232 1.06802176
0.09471135 -0.52284124 1.06787792
0.09465485 -0.52287641 1.06765616
0.09461915 -0.52300531 1.06751235
0.09460423 -0.52322802 1.06744641
0.09458412 -0.52342736 1.06736098
0.09454841 -0.52355631 1.06721712
0.09451270 -0.52368525 1.06707326
0.09404915 -0.53509469 1.06486757
0.09409151 -0.53558979 1.06501569
0.09405538 -0.53572024 1.06487014
0.09415018 -0.53646006 1.06521445
0.09421368 -0.53705488 1.06544166
0.09424576 -0.53750380 1.06555128
0.09426212 -0.53787976 1.06560203
0.09427847 -0.53825603 1.06565278
0.09426852 -0.53850979 1.06560512
0.09427436 -0.53883746 1.06561653
0.09425387 -0.53904230 1.06552943
0.09422283 -0.53919795 1.06540291
0.09419706 -0.53937824 1.06529606
0.09416076 -0.53950930 1.06514984
0.09414552 -0.53973898 1.06508235
0.09411974 -0.53991939 1.06497545
0.09410448 -0.54014920 1.06490790
0.09408394 -0.54035437 1.06482061
0.09405288 -0.54051022 1.06469397
0.09334762 -0.53749838 1.06204592
0.09311512 -0.53760479 1.06113474
0.09307905 -0.53773503 1.06098944
0.09298664 -0.53880182 1.06059171
0.09300232 -0.53917700 1.06063985
0.09299209 -0.53942993 1.06059116
0.09423150 -0.55546807 1.06487143
0.09419455 -0.55560150 1.06472257
0.09415760 -0.55573492 1.06457371
0.09412064 -0.55586835 1.06442485
0.09408369 -0.55600178 1.06427599
0.09404674 -0.55613520 1.06412713
0.09382951 -0.55633207 1.06327242
0.09380859 -0.55654314 1.06318345
0.09382503 -0.55693576 1.06323397
0.09378808 -0.55706918 1.06308511
0.09375113 -0.55720261 1.06293625
0.09371418 -0.55733604 1.06278739
0.09367723 -0.55746946 1.06263853
0.09364028 -0.55760289 1.06248967
0.09360333 -0.55773631 1.06234081
0.09356638 -0.55786974 1.06219195
0.09352942 -0.55800317 1.06204309
0.09349247 -0.55813659 1.06189423
0.09345552 -0.55827002 1.06174537
0.09341857 -0.55840344 1.06159651
0.09338162 -0.55853687 1.06144765
0.09334467 -0.55867029 1.06129880
0.09330772 -0.55880372 1.06114993
0.09327077 -0.55893715 1.06100108
0.09323381 -0.55907057 1.06085221
0.09319686 -0.55920400 1.06070336
0.09315991 -0.55933743 1.06055449
0.09312296 -0.55947085 1.06040564
0.09308601 -0.55960428 1.06025678
0.09304906 -0.55973770 1.06010792
0.09301211 -0.55987113 1.05995906
0.09297515 -0.56000456 1.05981020
0.09293820 -0.56013798 1.05966134
0.09290125 -0.56027141 1.05951247
0.09286430 -0.56040483 1.05936362
0.09282735 -0.56053826 1.05921476
0.09279040 -0.56067169 1.05906590
0.09205137 -0.56334020 1.05608870
0.09201442 -0.56347363 1.05593984
0.09197747 -0.56360706 1.05579098
0.09194052 -0.56374048 1.05564212
0.09190357 -0.56387391 1.05549326
0.09186662 -0.56400733 1.05534440
0.09182966 -0.56414076 1.05519554
0.09179271 -0.56427419 1.05504668
0.09175576 -0.56440761 1.05489782
0.09171881 -0.56454104 1.05474896
0.09168186 -0.56467446 1.05460010
0.09164491 -0.56480789 1.05445124
0.09160796 -0.56494131 1.05430238
0.09157100 -0.56507474 1.05415352
0.09153405 -0.56520817 1.05400466
0.09149710 -0.56534159 1.05385580
0.09146015 -0.56547502 1.05370694
0.09142320 -0.56560845 1.05355808
0.09138625 -0.56574187 1.05340922
0.09134930 -0.56587530 1.05326036
0.09131235 -0.56600872 1.05311150
0.09127539 -0.56614215 1.05296264
0.09123844 -0.56627558 1.05281378
0.09120149 -0.56640900 1.05266492
0.09116454 -0.56654243 1.05251606
0.09112759 -0.56667585 1.05236720
0.09109064 -0.56680928 1.05221834
0.09105369 -0.56694271 1.05206948
0.09101674 -0.56707613 1.05192062
0.09097978 -0.56720956 1.05177176
0.09094283 -0.56734298 1.05162290
0.09090588 -0.56747641 1.05147404
0.09086893 -0.56760984 1.05132518
0.09083198 -0.56774326 1.05117633
0.09079503 -0.56787669 1.05102746
0.09075808 -0.56801011 1.05087861
0.09072112 -0.56814354 1.05072974
0.09068417 -0.56827696 1.05058089
0.09064722 -0.56841039 1.05043202
0.09061027 -0.56854382 1.05028317
0.09057332 -0.56867724 1.05013431
0.09053637 -0.56881067 1.04998545
0.08524770 -0.54448380 1.03018854
0.08521250 -0.54461090 1.03004673
0.08517730 -0.54473800 1.02990493
0.08514210 -0.54486510 1.02976313
0.08510690 -0.54499220 1.02962133
0.08507170 -0.54511930 1.02947953
0.08503650 -0.54524641 1.02933772
0.08500130 -0.54537351 1.02919592
0.08496610 -0.54550061 1.02905412
0.08493090 -0.54562771 1.02891231
0.08489570 -0.54575481 1.02877051
0.08486051 -0.54588191 1.02862871
0.08482531 -0.54600901 1.02848690
0.08479011 -0.54613611 1.02834510
0.08475491 -0.54626321 1.02820330
0.08471971 -0.54639031 1.02806149
0.08950173 -0.57254660 1.04581737
0.08946478 -0.57268002 1.04566851
0.08942783 -0.57281345 1.04551965
0.08939088 -0.57294688 1.04537079
0.08935393 -0.57308030 1.04522193
0.08931697 -0.57321373 1.04507307
0.08928002 -0.57334715 1.04492421
0.08924307 -0.57348058 1.04477535
0.08920612 -0.57361401 1.04462649
0.08916917 -0.57374743 1.04447763
0.08913222 -0.57388086 1.04432877
0.08909527 -0.57401428 1.04417991
0.08905832 -0.57414771 1.04403105
0.08902136 -0.57428114 1.04388219
0.08898441 -0.57441456 1.04373333
0.08894746 -0.57454799 1.04358447
0.08891051 -0.57468141 1.04343561
0.08887356 -0.57481484 1.04328675
0.08883661 -0.57494826 1.04313789
0.08879966 -0.57508169 1.04298903
0.08876271 -0.57521512 1.04284017
0.08872575 -0.57534854 1.04269131
0.08868880 -0.57548197 1.04254245
0.08865185 -0.57561539 1.04239359
0.08861490 -0.57574882 1.04224473
0.08857795 -0.57588225 1.04209587
0.08854100 -0.57601567 1.04194701
0.08850405 -0.57614910 1.04179815
0.08846709 -0.57628253 1.04164929
0.08843014 -0.57641595 1.04150043
0.08839319 -0.57654938 1.04135157
0.08835624 -0.57668280 1.04120271
0.08831929 -0.57681623 1.04105385
0.08828234 -0.57694966 1.04090499
0.08824539 -0.57708308 1.04075613
0.08820844 -0.57721651 1.04060727
0.08817148 -0.57734993 1.04045841
0.08813453 -0.57748336 1.04030955
0.08809758 -0.57761678 1.04016069
0.08806063 -0.57775021 1.04001183
0.08802368 -0.57788364 1.03986297
0.08798673 -0.57801706 1.03971411
0.08794978 -0.57815049 1.03956526
0.09841625 -0.49755865 1.08244666
0.09838105 -0.49768574 1.08230486
0.09834585 -0.49781285 1.08216306
0.09816986 -0.49844835 1.08145404
0.09813466 -0.49857545 1.08131224
0.09809946 -0.49870255 1.08117044
0.09806426 -0.49882965 1.08102864
0.09802906 -0.49895675 1.08088683
0.09799386 -0.49908385 1.08074503
0.09795866 -0.49921095 1.08060323
0.09917507 -0.50621766 1.08509748
0.09916103 -0.50643690 1.08503494
0.09916322 -0.50672419 1.08503326
0.09914379 -0.50692103 1.08495042
0.09910810 -0.50704988 1.08480667
0.09725467 -0.50175296 1.07776717
0.09721947 -0.50188007 1.07762537
0.10258661 -0.52595465 1.09769901
0.10254966 -0.52608808 1.09755015
0.10251271 -0.52622150 1.09740129
0.10247576 -0.52635493 1.09725243
0.10243881 -0.52648835 1.09710357
0.10240185 -0.52662178 1.09695471
0.10236490 -0.52675521 1.09680585
0.10232795 -0.52688863 1.09665699
0.10229100 -0.52702206 1.09650813
0.10225405 -0.52715548 1.09635927
0.10221710 -0.52728891 1.09621041
0.10218015 -0.52742234 1.09606155
0.10214320 -0.52755576 1.09591269
0.10210624 -0.52768919 1.09576384
0.10206929 -0.52782261 1.09561498
0.10203234 -0.52795604 1.09546612
0.10199539 -0.52808947 1.09531726
0.10195844 -0.52822289 1.09516840
0.10192149 -0.52835632 1.09501954
0.10188454 -0.52848974 1.09487068
0.10184759 -0.52862317 1.09472182
0.10181063 -0.52875660 1.09457296
0.10177368 -0.52889002 1.09442410
0.10114551 -0.53115826 1.09189348
0.10110856 -0.53129169 1.09174462
0.10107161 -0.53142512 1.09159576
0.10103466 -0.53155854 1.09144690
0.10099770 -0.53169197 1.09129804
0.10096075 -0.53182539 1.09114918
0.10092380 -0.53195882 1.09100032
0.10088685 -0.53209224 1.09085146
0.10084990 -0.53222567 1.09070260
0.10081295 -0.53235910 1.09055374
0.10077600 -0.53249252 1.09040488
0.10073905 -0.53262595 1.09025602
0.10070209 -0.53275938 1.09010716
0.09523544 -0.50978383 1.06960631
0.09521569 -0.50997861 1.06952232
0.09520109 -0.51019600 1.06945764
0.09518648 -0.51041345 1.06939290
0.09516669 -0.51060839 1.06930882
0.09514176 -0.51078084 1.06920543
0.09511681 -0.51095328 1.06910198
0.09508671 -0.51110322 1.06897926
0.09505660 -0.51125312 1.06885648
0.09502133 -0.51138045 1.06871443
0.09501698 -0.51164350 1.06868810
0.09498687 -0.51179351 1.06856530
0.09495675 -0.51194352 1.06844248
0.09494723 -0.51218417 1.06839678
0.09492224 -0.51235690 1.06829318
0.09438602 -0.51338613 1.06616530
0.09436100 -0.51355880 1.06606159
0.09433088 -0.51370884 1.06593874
0.09430074 -0.51385885 1.06581585
0.09427059 -0.51400887 1.06569294
0.09425068 -0.51420443 1.06560834
0.09423077 -0.51440002 1.06552370
0.09489753 -0.52225368 1.06784419
0.09487745 -0.52245271 1.06775883
0.09485740 -0.52265187 1.06767351
0.09481129 -0.52273388 1.06749077
0.09477560 -0.52286275 1.06734699
0.09474511 -0.52301507 1.06722267
0.09475103 -0.52333155 1.06723450
0.09473094 -0.52353090 1.06714904
0.09421799 -0.53499618 1.06474009
0.09423949 -0.53539384 1.06480980
0.09414579 -0.53525687 1.06444925
0.09439472 -0.53760885 1.06533626
0.09440060 -0.53793578 1.06534756
0.09442231 -0.53833663 1.06541789
0.09441237 -0.53859037 1.06537015
0.09442355 -0.53894267 1.06540117
0.09440308 -0.53914753 1.06531404
0.09436679 -0.53927857 1.06516784
0.09434629 -0.53948349 1.06508064
0.09433109 -0.53971316 1.06501314
0.09432114 -0.53996756 1.06496527
0.09430591 -0.54019739 1.06489768
0.09427485 -0.54035323 1.06477105
0.09424381 -0.54050908 1.06464439
0.09421802 -0.54068966 1.06453739
0.09417643 -0.54079611 1.06437139
0.09413802 -0.54273155 1.06415264
0.09317673 -0.53940423 1.06052229
0.09434647 -0.55570864 1.06450327
0.09430952 -0.55584207 1.06435441
0.09427257 -0.55597549 1.06420555
0.09423562 -0.55610892 1.06405669
0.09419866 -0.55624234 1.06390783
0.09411888 -0.55616857 1.06359930
0.09406590 -0.55622426 1.06339067
0.09404501 -0.55643531 1.06330170
0.09400807 -0.55656869 1.06315289
0.09401391 -0.55690947 1.06316353
0.09397696 -0.55704290 1.06301467
0.09394001 -0.55717633 1.06286581
0.09390305 -0.55730975 1.06271695
0.09386610 -0.55744318 1.06256809
0.09382915 -0.55757660 1.06241923
0.09379220 -0.55771003 1.06227037
0.09375525 -0.55784346 1.06212151
0.09371830 -0.55797688 1.06197265
0.09368135 -0.55811031 1.06182379
0.09364440 -0.55824373 1.06167493
0.09360744 -0.55837716 1.06152607
0.09357049 -0.55851059 1.06137721
0.09353354 -0.55864401 1.06122835
0.09349659 -0.55877744 1.06107949
0.09345964 -0.55891086 1.06093063
0.09342269 -0.55904429 1.06078177
0.09338574 -0.55917771 1.06063291
0.09334878 -0.55931114 1.06048405
0.09331183 -0.55944457 1.06033519
0.09327488 -0.55957799 1.06018633
0.09323793 -0.55971142 1.06003747
0.09320098 -0.55984484 1.05988861
0.09316403 -0.55997827 1.05973975
0.09312708 -0.56011170 1.05959089
0.09309013 -0.56024512 1.05944203
0.09305317 -0.56037855 1.05929317
0.09301622 -0.56051197 1.05914431
0.09297927 -0.56064540 1.05899545
0.09294232 -0.56077883 1.05884659
0.09224025 -0.56331392 1.05601826
0.09220329 -0.56344735 1.05586940
0.09216634 -0.56358077 1.05572054
0.09212939 -0.56371420 1.05557168
0.09209244 -0.56384762 1.05542282
0.09205549 -0.56398105 1.05527396
0.09201854 -0.56411448 1.05512510
0.09198159 -0.56424790 1.05497624
0.09194464 -0.56438133 1.05482738
0.09190768 -0.56451475 1.05467852
0.09187073 -0.56464818 1.05452966
0.09183378 -0.56478161 1.05438080
0.09179683 -0.56491503 1.05423194
0.09175988 -0.56504846 1.05408308
0.09172293 -0.56518188 1.05393422
0.09168598 -0.56531531 1.05378536
0.09164902 -0.56544874 1.05363650
0.09161207 -0.56558216 1.05348764
0.09157512 -0.56571559 1.05333878
0.09153817 -0.56584901 1.05318992
0.09150122 -0.56598244 1.05304106
0.09146427 -0.56611586 1.05289220
0.09142732 -0.56624929 1.05274334
0.09139037 -0.56638272 1.05259448
0.09135341 -0.56651614 1.05244562
0.09131646 -0.56664957 1.05229676
0.09127951 -0.56678299 1.05214790
0.09124256 -0.56691642 1.05199904
0.09120561 -0.56704985 1.05185018
0.09116866 -0.56718327 1.05170132
0.09113171 -0.56731670 1.05155246
0.09109475 -0.56745013 1.05140360
0.09105780 -0.56758355 1.05125474
0.09102085 -0.56771698 1.05110588
0.09098390 -0.56785040 1.05095702
0.09094695 -0.56798383 1.05080816
0.09091000 -0.56811726 1.05065930
0.09087305 -0.56825068 1.05051044
0.09083610 -0.56838411 1.05036158
0.09079914 -0.56851753 1.05021272
0.09076219 -0.56865096 1.05006386
0.09072524 -0.56878438 1.04991500
0.08542762 -0.54445876 1.03012143
0.08539242 -0.54458586 1.02997963
0.08535722 -0.54471296 1.02983783
0.08532202 -0.54484006 1.02969603
0.08528682 -0.54496717 1.02955422
0.08525163 -0.54509427 1.02941242
0.08521643 -0.54522137 1.02927062
0.08518123 -0.54534847 1.02912881
0.08514603 -0.54547557 1.02898701
0.08511083 -0.54560267 1.02884521
0.08507563 -0.54572977 1.02870341
0.08504043 -0.54585687 1.02856160
0.08500523 -0.54598397 1.02841980
0.08497003 -0.54611107 1.02827800
0.08493483 -0.54623817 1.02813619
0.08489963 -0.54636527 1.02799439
0.08486443 -0.54649237 1.02785259
0.08965365 -0.57265374 1.04559807
0.08961670 -0.57278716 1.04544921
0.08957975 -0.57292059 1.04530035
0.08954280 -0.57305402 1.04515149
0.08950585 -0.57318744 1.04500263
0.08946890 -0.57332087 1.04485377
0.08943195 -0.57345430 1.04470491
0.08939499 -0.57358772 1.04455605
0.08935804 -0.57372115 1.04440719
0.08932109 -0.57385457 1.04425833
0.08928414 -0.57398800 1.04410947
0.08924719 -0.57412143 1.04396061
0.08921024 -0.57425485 1.04381175
0.08917329 -0.57438828 1.04366289
0.08913634 -0.57452170 1.04351403
0.08909938 -0.57465513 1.04336517
0.08906243 -0.57478856 1.04321631
0.08902548 -0.57492198 1.04306745
0.08898853 -0.57505541 1.04291859
0.08895158 -0.57518883 1.04276973
0.08891463 -0.57532226 1.04262087
0.08887768 -0.57545568 1.04247201
0.08884073 -0.57558911 1.04232315
0.08880377 -0.57572254 1.04217429
0.08876682 -0.57585596 1.04202543
0.08872987 -0.57598939 1.04187657
0.08869292 -0.57612281 1.04172771
0.08865597 -0.57625624 1.04157885
0.08861902 -0.57638967 1.04142999
0.08858207 -0.57652309 1.04128113
0.08854511 -0.57665652 1.04113227
0.08850816 -0.57678994 1.04098341
0.08847121 -0.57692337 1.04083455
0.08843426 -0.57705680 1.04068569
0.08839731 -0.57719022 1.04053683
0.08836036 -0.57732365 1.04038797
0.08832341 -0.57745707 1.04023911
0.08828646 -0.57759050 1.04009025
0.08824950 -0.57772393 1.03994139
0.08821255 -0.57785735 1.03979253
0.08817560 -0.57799078 1.03964367
0.08813865 -0.57812420 1.03949481
0.10179934 -0.48596745 1.09528361
0.10176414 -0.48609455 1.09514181
0.09859618 -0.49753361 1.08237956
0.09856098 -0.49766071 1.08223776
0.09852578 -0.49778781 1.08209595
0.09834978 -0.49842331 1.08138694
0.09831458 -0.49855041 1.08124514
0.09827938 -0.49867751 1.08110333
0.09824418 -0.49880461 1.08096153
0.09820898 -0.49893171 1.08081973
0.09817378 -0.49905881 1.08067793
0.09813858 -0.49918591 1.08053612
0.09935192 -0.50616967 1.08500921
0.09932708 -0.50634364 1.08490609
0.09932934 -0.50663090 1.08490441
0.09930991 -0.50682763 1.08482151
0.09927966 -0.50697915 1.08469808
0.10281244 -0.52579494 1.09777743
0.10277549 -0.52592837 1.09762857
0.10273853 -0.52606179 1.09747971
0.10270158 -0.52619522 1.09733085
0.10266463 -0.52632864 1.09718199
0.10262768 -0.52646207 1.09703313
0.10259073 -0.52659550 1.09688427
0.10255378 -0.52672892 1.09673541
0.10251683 -0.52686235 1.09658655
0.10247987 -0.52699577 1.09643769
0.10244292 -0.52712920 1.09628883
0.10240597 -0.52726263 1.09613997
0.10236902 -0.52739605 1.09599111
0.10233207 -0.52752948 1.09584225
0.10229512 -0.52766290 1.09569339
0.10225817 -0.52779633 1.09554453
0.10222122 -0.52792976 1.09539567
0.10218426 -0.52806318 1.09524681
0.10214731 -0.52819661 1.09509795
0.10211036 -0.52833003 1.09494909
0.10207341 -0.52846346 1.09480023
0.10203646 -0.52859689 1.09465137
0.10199951 -0.52873031 1.09450251
0.10196256 -0.52886374 1.09435365
0.10192561 -0.52899716 1.09420479
0.10133438 -0.53113198 1.09182304
0.10129743 -0.53126540 1.09167418
0.10126048 -0.53139883 1.09152532
0.10122353 -0.53153226 1.09137646
0.10118658 -0.53166568 1.09122760
0.10114963 -0.53179911 1.09107874
0.10111268 -0.53193254 1.09092988
0.10107572 -0.53206596 1.09078102
0.10103877 -0.53219939 1.09063216
0.10100182 -0.53233281 1.09048330
0.10096487 -0.53246624 1.09033444
0.10092792 -0.53259966 1.09018558
0.09541552 -0.50975877 1.06953915
0.09539578 -0.50995354 1.06945515
0.09536572 -0.51010331 1.06933252
0.09536665 -0.51038837 1.06932571
0.09534689 -0.51058331 1.06924161
0.09531163 -0.51071060 1.06909960
0.09528672 -0.51088307 1.06899619
0.09526178 -0.51105552 1.06889272
0.09523169 -0.51120546 1.06876999
0.09520158 -0.51135536 1.06864720
0.09519728 -0.51161841 1.06862086
0.09516717 -0.51176841 1.06849805
0.09513706 -0.51191843 1.06837523
0.09513790 -0.51220438 1.06836807
0.09511294 -0.51237716 1.06826449
0.09456621 -0.51336105 1.06609810
0.09454635 -0.51355646 1.06601356
0.09451621 -0.51370646 1.06589067
0.09448607 -0.51385647 1.06576777
0.09446620 -0.51405201 1.06568317
0.09446169 -0.51431582 1.06565598
0.09442642 -0.51444319 1.06551388
0.09437578 -0.51450228 1.06531438
0.09410650 -0.53182377 1.06363274
0.09413306 -0.53224193 1.06372096
0.09429828 -0.53478529 1.06427193
0.09426220 -0.53491555 1.06412660
0.09454367 -0.53771390 1.06512125
0.09454962 -0.53804087 1.06513246
0.09455556 -0.53836808 1.06514367
0.09456150 -0.53869554 1.06515489
0.09456218 -0.53899867 1.06514645
0.09455229 -0.53925276 1.06509865
0.09451600 -0.53938380 1.06495245
0.09451137 -0.53966266 1.06492423
0.09450675 -0.53994173 1.06489604
0.09449156 -0.54017155 1.06482844
0.09446580 -0.54035208 1.06472148
0.09444530 -0.54055734 1.06463415
0.09441427 -0.54071327 1.06450749
0.09438321 -0.54086917 1.06438079
0.09436271 -0.54107456 1.06429339
0.09433692 -0.54125527 1.06418632
0.09430058 -0.54138649 1.06403992
0.09432287 -0.54209517 1.06410090
0.09436046 -0.54257423 1.06422988
0.09433462 -0.54275536 1.06412261
0.09430880 -0.54293656 1.06401534
0.09449839 -0.55581578 1.06428396
0.09446144 -0.55594921 1.06413510
0.09442449 -0.55608263 1.06398624
0.09438754 -0.55621606 1.06383738
0.09435059 -0.55634949 1.06368853
0.09431364 -0.55648291 1.06353967
0.09427668 -0.55661634 1.06339081
0.09423973 -0.55674976 1.06324195
0.09420278 -0.55688319 1.06309309
0.09416583 -0.55701662 1.06294423
0.09412888 -0.55715004 1.06279537
0.09409193 -0.55728347 1.06264651
0.09405498 -0.55741689 1.06249765
0.09401803 -0.55755032 1.06234879
0.09398107 -0.55768375 1.06219993
0.09394412 -0.55781717 1.06205107
0.09390717 -0.55795060 1.06190221
0.09387022 -0.55808402 1.06175335
0.09383327 -0.55821745 1.06160449
0.09379632 -0.55835088 1.06145563
0.09375937 -0.55848430 1.06130677
0.09372242 -0.55861773 1.06115791
0.09368546 -0.55875115 1.06100905
0.09364851 -0.55888458 1.06086019
0.09361156 -0.55901801 1.06071133
0.09357461 -0.55915143 1.06056247
0.09353766 -0.55928486 1.06041361
0.09350071 -0.55941828 1.06026475
0.09346376 -0.55955171 1.06011589
0.09342680 -0.55968514 1.05996703
0.09338985 -0.55981856 1.05981817
0.09335290 -0.55995199 1.05966931
0.09331595 -0.56008541 1.05952045
0.09327900 -0.56021884 1.05937159
0.09324205 -0.56035226 1.05922273
0.09320510 -0.56048569 1.05907387
0.09316815 -0.56061912 1.05892501
0.09313119 -0.56075254 1.05877615
0.09239217 -0.56342106 1.05579895
0.09235522 -0.56355449 1.05565009
0.09231827 -0.56368791 1.05550123
0.09228131 -0.56382134 1.05535237
0.09224436 -0.56395476 1.05520352
0.09220741 -0.56408819 1.05505465
0.09217046 -0.56422162 1.05490580
0.09213351 -0.56435504 1.05475693
0.09209656 -0.56448847 1.05460808
0.09205961 -0.56462190 1.05445921
0.09202266 -0.56475532 1.05431036
0.09198570 -0.56488875 1.05416150
0.09194875 -0.56502217 1.05401264
0.09191180 -0.56515560 1.05386378
0.09187485 -0.56528903 1.05371492
0.09183790 -0.56542245 1.05356606
0.09180095 -0.56555588 1.05341720
0.09176400 -0.56568930 1.05326834
0.09172705 -0.56582273 1.05311948
0.09169009 -0.56595616 1.05297062
0.09165314 -0.56608958 1.05282176
0.09161619 -0.56622301 1.05267290
0.09157924 -0.56635643 1.05252404
0.09154229 -0.56648986 1.05237518
0.09150534 -0.56662328 1.05222632
0.09146839 -0.56675671 1.05207746
0.09143143 -0.56689014 1.05192860
0.09139448 -0.56702356 1.05177974
0.09135753 -0.56715699 1.05163088
0.09132058 -0.56729041 1.05148202
0.09128363 -0.56742384 1.05133316
0.09124668 -0.56755727 1.05118430
0.09120973 -0.56769069 1.05103544
0.09117278 -0.56782412 1.05088658
0.09113582 -0.56795754 1.05073772
0.09109887 -0.56809097 1.05058886
0.09106192 -0.56822440 1.05044000
0.09102497 -0.56835782 1.05029114
0.09098802 -0.56849125 1.05014228
0.09095107 -0.56862467 1.04999342
0.09091412 -0.56875810 1.04984456
0.08560755 -0.54443372 1.03005433
0.08557235 -0.54456083 1.02991253
0.08553715 -0.54468792 1.02977072
0.08550195 -0.54481502 1.02962892
0.08546675 -0.54494213 1.02948712
0.08543155 -0.54506923 1.02934532
0.08539635 -0.54519633 1.02920351
0.08536115 -0.54532343 1.02906171
0.08532595 -0.54545053 1.02891991
0.08529075 -0.54557763 1.02877810
0.08525555 -0.54570473 1.02863630
0.08522035 -0.54583183 1.02849450
0.08518515 -0.54595893 1.02835270
0.08514995 -0.54608603 1.02821089
0.08511475 -0.54621313 1.02806909
0.08507955 -0.54634024 1.02792728
0.08504435 -0.54646733 1.02778548
0.08500915 -0.54659444 1.02764368
0.08980558 -0.57276088 1.04537876
0.08976862 -0.57289431 1.04522990
0.08973167 -0.57302773 1.04508104
0.08969472 -0.57316116 1.04493218
0.08965777 -0.57329458 1.04478332
0.08962082 -0.57342801 1.04463446
0.08958387 -0.57356144 1.04448560
0.08954692 -0.57369486 1.04433674
0.08950997 -0.57382829 1.04418788
0.08947301 -0.57396171 1.04403902
0.08943606 -0.57409514 1.04389016
0.08939911 -0.57422857 1.04374130
0.08936216 -0.57436199 1.04359244
0.08932521 -0.57449542 1.04344358
0.08928826 -0.57462884 1.04329473
0.08925131 -0.57476227 1.04314586
0.08921436 -0.57489570 1.04299701
0.08917740 -0.57502912 1.04284814
0.08914045 -0.57516255 1.04269929
0.08910350 -0.57529598 1.04255042
0.08906655 -0.57542940 1.04240157
0.08902960 -0.57556283 1.04225271
0.08899265 -0.57569625 1.04210385
0.08895570 -0.57582968 1.04195499
0.08891874 -0.57596311 1.04180613
0.08888179 -0.57609653 1.04165727
0.08884484 -0.57622996 1.04150841
0.08880789 -0.57636338 1.04135955
0.08877094 -0.57649681 1.04121069
0.08873399 -0.57663023 1.04106183
0.08869704 -0.57676366 1.04091297
0.08866009 -0.57689709 1.04076411
0.08862313 -0.57703051 1.04061525
0.08858618 -0.57716394 1.04046639
0.08854923 -0.57729736 1.04031753
0.08851228 -0.57743079 1.04016867
0.08847533 -0.57756422 1.04001981
0.08843838 -0.57769764 1.03987095
0.08840143 -0.57783107 1.03972209
0.08836448 -0.57796449 1.03957323
0.08832752 -0.57809792 1.03942437
0.10201445 -0.48581531 1.09535831
0.10197925 -0.48594242 1.09521651
0.10194405 -0.48606952 1.09507471
0.10190885 -0.48619661 1.09493291
0.09874089 -0.49763567 1.08217065
0.09870569 -0.49776277 1.08202885
0.09845930 -0.49865247 1.08103623
0.09842410 -0.49877957 1.08089443
0.09838890 -0.49890667 1.08075263
0.09835370 -0.49903378 1.08061082
0.09952875 -0.50612169 1.08492095
0.09949852 -0.50627306 1.08479758
0.09947370 -0.50644704 1.08469445
0.09944888 -0.50662109 1.08459132
0.09945118 -0.50690844 1.08458951
0.09937755 -0.50687864 1.08430397
0.09933648 -0.50698476 1.08414005
0.09908897 -0.50678231 1.08318393
0.09906413 -0.50695616 1.08308076
0.09902851 -0.50708478 1.08293726
0.10303826 -0.52563523 1.09785585
0.10300131 -0.52576866 1.09770699
0.10296436 -0.52590208 1.09755813
0.10292741 -0.52603551 1.09740927
0.10289046 -0.52616893 1.09726041
0.10285350 -0.52630236 1.09711155
0.10281655 -0.52643579 1.09696269
0.10277960 -0.52656921 1.09681383
0.10274265 -0.52670264 1.09666497
0.10270570 -0.52683606 1.09651611
0.10266875 -0.52696949 1.09636725
0.10263180 -0.52710292 1.09621839
0.10259485 -0.52723634 1.09606953
0.10255789 -0.52736977 1.09592067
0.10252094 -0.52750319 1.09577181
0.10248399 -0.52763662 1.09562295
0.10244704 -0.52777005 1.09547409
0.10241009 -0.52790347 1.09532523
0.10237314 -0.52803690 1.09517637
0.10233619 -0.52817032 1.09502751
0.10229924 -0.52830375 1.09487865
0.10226228 -0.52843718 1.09472979
0.10222533 -0.52857060 1.09458093
0.10218838 -0.52870403 1.09443207
0.10215143 -0.52883745 1.09428321
0.10211448 -0.52897088 1.09413435
0.10207753 -0.52910431 1.09398549
0.10144936 -0.53137255 1.09145487
0.10141240 -0.53150597 1.09130601
0.10137545 -0.53163940 1.09115715
0.10133850 -0.53177282 1.09100829
0.10130155 -0.53190625 1.09085943
0.10126460 -0.53203968 1.09071057
0.10122765 -0.53217310 1.09056171
0.10119070 -0.53230653 1.09041285
0.10115374 -0.53243995 1.09026399
0.10111679 -0.53257338 1.09011513
0.09556036 -0.50986092 1.06933007
0.09554065 -0.51005571 1.06924604
0.09554681 -0.51036330 1.06925851
0.09552191 -0.51053568 1.06915511
0.09549183 -0.51068553 1.06903239
0.09545657 -0.51081282 1.06889037
0.09542649 -0.51096268 1.06876764
0.09540158 -0.51113518 1.06866419
0.09537666 -0.51130770 1.06856072
0.09537240 -0.51157069 1.06853432
0.09534231 -0.51172068 1.06841152
0.09531220 -0.51187069 1.06828870
0.09531827 -0.51217928 1.06830079
0.09528298 -0.51230669 1.06815864
0.09475152 -0.51335866 1.06605004
0.09472655 -0.51353138 1.06594635
0.09470155 -0.51370408 1.06584259
0.09467144 -0.51385414 1.06571972
0.09465157 -0.51404963 1.06563507
0.09463686 -0.51426797 1.06556958
0.09461186 -0.51444086 1.06546578
0.09457658 -0.51456824 1.06532367
0.09411211 -0.53038928 1.06292371
0.09424788 -0.53130859 1.06341798
0.09429015 -0.53179821 1.06356424
0.09425422 -0.53192794 1.06341951
0.09428086 -0.53234616 1.06350761
0.09447220 -0.53471115 1.06416415
0.09443612 -0.53484140 1.06401883
0.09469333 -0.53812141 1.06489771
0.09470462 -0.53847321 1.06492849
0.09471063 -0.53880070 1.06493962
0.09471135 -0.53910387 1.06493112
0.09470151 -0.53935799 1.06488326
0.09468106 -0.53956291 1.06479602
0.09469236 -0.53991590 1.06482682
0.09467720 -0.54014572 1.06475920
0.09465147 -0.54032625 1.06465223
0.09463631 -0.54055624 1.06458459
0.09462113 -0.54078629 1.06451690
0.09459537 -0.54096697 1.06440985
0.09458018 -0.54119721 1.06434213
0.09455441 -0.54137795 1.06423500
0.09453392 -0.54158354 1.06414756
0.09450813 -0.54176439 1.06404041
0.09455641 -0.54229268 1.06420865
0.09454651 -0.54254834 1.06416049
0.09453129 -0.54277921 1.06409260
0.09450017 -0.54293552 1.06396561
0.09447965 -0.54314165 1.06387799
0.09445381 -0.54332292 1.06377065
0.09443859 -0.54355409 1.06370268
0.09440216 -0.54368561 1.06355594
0.09469976 -0.55429648 1.06431797
0.09466287 -0.55442970 1.06416935
0.09468727 -0.55578950 1.06421352
0.09465032 -0.55592292 1.06406466
0.09461336 -0.55605635 1.06391580
0.09457641 -0.55618978 1.06376694
0.09453946 -0.55632320 1.06361808
0.09450251 -0.55645663 1.06346922
0.09446556 -0.55659005 1.06332036
0.09442861 -0.55672348 1.06317150
0.09439166 -0.55685691 1.06302264
0.09435470 -0.55699033 1.06287378
0.09431775 -0.55712376 1.06272492
0.09428080 -0.55725718 1.06257606
0.09424385 -0.55739061 1.06242720
0.09420690 -0.55752403 1.06227834
0.09416995 -0.55765746 1.06212948
0.09413300 -0.55779089 1.06198062
0.09409605 -0.55792431 1.06183176
0.09405909 -0.55805774 1.06168291
0.09402214 -0.55819116 1.06153405
0.09398519 -0.55832459 1.06138518
0.09394824 -0.55845802 1.06123633
0.09391129 -0.55859144 1.06108747
0.09387434 -0.55872487 1.06093860
0.09383739 -0.55885829 1.06078975
0.09380044 -0.55899172 1.06064088
0.09376348 -0.55912515 1.06049203
0.09372653 -0.55925857 1.06034316
0.09368958 -0.55939200 1.06019431
0.09365263 -0.55952542 1.06004545
0.09361568 -0.55965885 1.05989659
0.09357873 -0.55979228 1.05974773
0.09354178 -0.55992570 1.05959887
0.09350482 -0.56005913 1.05945001
0.09346787 -0.56019256 1.05930115
0.09343092 -0.56032598 1.05915229
0.09339397 -0.56045941 1.05900343
0.09335702 -0.56059283 1.05885457
0.09332007 -0.56072626 1.05870571
0.09328312 -0.56085968 1.05855685
0.09258104 -0.56339478 1.05572851
0.09254409 -0.56352820 1.05557965
0.09250714 -0.56366163 1.05543079
0.09247019 -0.56379506 1.05528193
0.09243324 -0.56392848 1.05513307
0.09239629 -0.56406191 1.05498421
0.09235933 -0.56419533 1.05483535
0.09232238 -0.56432876 1.05468649
0.09228543 -0.56446218 1.05453763
0.09224848 -0.56459561 1.05438877
0.09221153 -0.56472904 1.05423991
0.09217458 -0.56486246 1.05409105
0.09213763 -0.56499589 1.05394219
0.09210068 -0.56512931 1.05379333
0.09206372 -0.56526274 1.05364447
0.09202677 -0.56539617 1.05349561
0.09198982 -0.56552959 1.05334675
0.09195287 -0.56566302 1.05319789
0.09191592 -0.56579644 1.05304903
0.09187897 -0.56592987 1.05290017
0.09184202 -0.56606330 1.05275131
0.09180506 -0.56619672 1.05260245
0.09176811 -0.56633015 1.05245359
0.09173116 -0.56646358 1.05230473
0.09169421 -0.56659700 1.05215587
0.09165726 -0.56673043 1.05200702
0.09162031 -0.56686385 1.05185815
0.09158336 -0.56699728 1.05170930
0.09154641 -0.56713071 1.05156043
0.09150945 -0.56726413 1.05141158
0.09147250 -0.56739756 1.05126271
0.09143555 -0.56753098 1.05111386
0.09139860 -0.56766441 1.05096500
0.09136165 -0.56779783 1.05081614
0.09132470 -0.56793126 1.05066728
0.09128775 -0.56806469 1.05051842
0.09125080 -0.56819811 1.05036956
0.09121384 -0.56833154 1.05022070
0.09117689 -0.56846496 1.05007184
0.09113994 -0.56859839 1.04992298
0.09110299 -0.56873182 1.04977412
0.08578746 -0.54440869 1.02998723
0.08575226 -0.54453579 1.02984542
0.08571706 -0.54466289 1.02970362
0.08568186 -0.54478999 1.02956182
0.08564666 -0.54491709 1.02942001
0.08561147 -0.54504419 1.02927821
0.08557627 -0.54517129 1.02913641
0.08554107 -0.54529839 1.02899461
0.08550587 -0.54542549 1.02885281
0.08547067 -0.54555259 1.02871100
0.08543547 -0.54567969 1.02856920
0.08540027 -0.54580679 1.02842740
0.08536507 -0.54593389 1.02828559
0.08532987 -0.54606099 1.02814379
0.08529467 -0.54618810 1.02800199
0.08525947 -0.54631520 1.02786018
0.08522427 -0.54644230 1.02771838
0.08518907 -0.54656940 1.02757658
0.08515387 -0.54669650 1.02743477
0.08995750 -0.57286802 1.04515946
0.08992055 -0.57300145 1.04501060
0.08988360 -0.57313488 1.04486174
0.08984665 -0.57326830 1.04471288
0.08980969 -0.57340173 1.04456402
0.08977274 -0.57353515 1.04441516
0.08973579 -0.57366858 1.04426630
0.08969884 -0.57380200 1.04411744
0.08966189 -0.57393543 1.04396858
0.08962494 -0.57406886 1.04381972
0.08958799 -0.57420228 1.04367086
0.08955103 -0.57433571 1.04352200
0.08951408 -0.57446913 1.04337314
0.08947713 -0.57460256 1.04322428
0.08944018 -0.57473599 1.04307542
0.08940323 -0.57486941 1.04292656
0.08936628 -0.57500284 1.04277770
0.08932933 -0.57513626 1.04262884
0.08929238 -0.57526969 1.04247998
0.08925542 -0.57540312 1.04233112
0.08921847 -0.57553654 1.04218226
0.08918152 -0.57566997 1.04203340
0.08914457 -0.57580339 1.04188454
0.08910762 -0.57593682 1.04173568
0.08907067 -0.57607025 1.04158682
0.08903372 -0.57620367 1.04143796
0.08899677 -0.57633710 1.04128910
0.08895981 -0.57647052 1.04114024
0.08892286 -0.57660395 1.04099138
0.08888591 -0.57673738 1.04084252
0.08884896 -0.57687080 1.04069366
0.08881201 -0.57700423 1.04054480
0.08877506 -0.57713765 1.04039594
0.08873811 -0.57727108 1.04024708
0.08870115 -0.57740450 1.04009823
0.08866420 -0.57753793 1.03994936
0.08862725 -0.57767136 1.03980051
0.08859030 -0.57780478 1.03965164
0.08855335 -0.57793821 1.03950279
0.08851640 -0.57807163 1.03935393
0.10219438 -0.48579027 1.09529121
0.10215918 -0.48591738 1.09514941
0.10212398 -0.48604448 1.09500760
0.10208878 -0.48617158 1.09486580
0.10205358 -0.48629868 1.09472400
0.09892082 -0.49761063 1.08210355
0.09888562 -0.49773773 1.08196175
0.09885042 -0.49786483 1.08181994
0.09860402 -0.49875454 1.08082732
0.09856882 -0.49888164 1.08068552
0.09835762 -0.49964424 1.07983470
0.09967535 -0.50622507 1.08470933
0.09964513 -0.50637645 1.08458596
0.09962575 -0.50657308 1.08450307
0.09959552 -0.50672450 1.08437966
0.09955442 -0.50683062 1.08421573
0.09951876 -0.50695940 1.08407206
0.09940181 -0.50674852 1.08362513
0.09932828 -0.50671882 1.08334023
0.09927103 -0.50675697 1.08311602
0.09923541 -0.50688559 1.08297253
0.09919979 -0.50701420 1.08282904
0.10326409 -0.52547552 1.09793426
0.10322714 -0.52560894 1.09778540
0.10319019 -0.52574237 1.09763654
0.10315324 -0.52587580 1.09748768
0.10311629 -0.52600922 1.09733882
0.10307934 -0.52614265 1.09718996
0.10304239 -0.52627607 1.09704110
0.10300543 -0.52640950 1.09689224
0.10296848 -0.52654293 1.09674338
0.10293153 -0.52667635 1.09659452
0.10289458 -0.52680978 1.09644566
0.10285763 -0.52694320 1.09629680
0.10282068 -0.52707663 1.09614794
0.10278373 -0.52721006 1.09599908
0.10274678 -0.52734348 1.09585022
0.10270982 -0.52747691 1.09570136
0.10267287 -0.52761033 1.09555250
0.10263592 -0.52774376 1.09540364
0.10259897 -0.52787719 1.09525478
0.10256202 -0.52801061 1.09510592
0.10252507 -0.52814404 1.09495706
0.10248812 -0.52827746 1.09480820
0.10245116 -0.52841089 1.09465934
0.10241421 -0.52854432 1.09451048
0.10237726 -0.52867774 1.09436162
0.10234031 -0.52881117 1.09421276
0.10230336 -0.52894459 1.09406391
0.10226641 -0.52907802 1.09391504
0.10156433 -0.53161311 1.09108671
0.10152738 -0.53174654 1.09093785
0.10149043 -0.53187997 1.09078899
0.10145348 -0.53201339 1.09064013
0.10141653 -0.53214682 1.09049127
0.10137958 -0.53228024 1.09034241
0.10134263 -0.53241367 1.09019355
0.09569173 -0.51046550 1.06904932
0.09566167 -0.51061533 1.06892661
0.09562642 -0.51074261 1.06878461
0.09560152 -0.51091503 1.06868115
0.09556626 -0.51104233 1.06853914
0.09554137 -0.51121483 1.06843568
0.09552164 -0.51140994 1.06835144
0.09549672 -0.51158249 1.06824793
0.09548215 -0.51180031 1.06818290
0.09545205 -0.51195032 1.06806008
0.09493172 -0.51333359 1.06598284
0.09491190 -0.51352899 1.06589828
0.09488178 -0.51367900 1.06577538
0.09485168 -0.51382906 1.06565249
0.09483184 -0.51402455 1.06556784
0.09481715 -0.51424288 1.06550234
0.09479217 -0.51441577 1.06539853
0.09475689 -0.51454314 1.06525642
0.09429533 -0.53036378 1.06285538
0.09437402 -0.53101948 1.06313645
0.09440070 -0.53143668 1.06322429
0.09435958 -0.53154233 1.06306028
0.09486427 -0.53862746 1.06475259
0.09486505 -0.53893048 1.06474402
0.09487642 -0.53928293 1.06477475
0.09486660 -0.53953709 1.06472683
0.09485677 -0.53979141 1.06467890
0.09486285 -0.54011988 1.06468996
0.09483713 -0.54030041 1.06458298
0.09482201 -0.54053040 1.06451533
0.09481215 -0.54078515 1.06446728
0.09480233 -0.54104010 1.06441926
0.09477656 -0.54122083 1.06431215
0.09475611 -0.54142640 1.06422471
0.09473035 -0.54160723 1.06411757
0.09472579 -0.54188731 1.06408909
0.09474241 -0.54226680 1.06413927
0.09473785 -0.54254729 1.06411078
0.09472266 -0.54277816 1.06404287
0.09471278 -0.54303403 1.06399463
0.09469760 -0.54326515 1.06392670
0.09467179 -0.54344649 1.06381934
0.09464597 -0.54362786 1.06371196
0.09462544 -0.54383418 1.06362422
0.09459432 -0.54399072 1.06349714
0.09455788 -0.54412229 1.06335035
0.09488834 -0.55427024 1.06424764
0.09487297 -0.55450655 1.06417883
0.09484146 -0.55466558 1.06405013
0.09486379 -0.55508279 1.06412103
0.09491310 -0.55562979 1.06429194
0.09487615 -0.55576321 1.06414308
0.09483920 -0.55589664 1.06399422
0.09480224 -0.55603006 1.06384536
0.09476529 -0.55616349 1.06369650
0.09472834 -0.55629692 1.06354764
0.09469139 -0.55643034 1.06339878
0.09465444 -0.55656377 1.06324992
0.09461749 -0.55669719 1.06310106
0.09458054 -0.55683062 1.06295220
0.09454359 -0.55696405 1.06280334
0.09450663 -0.55709747 1.06265448
0.09446968 -0.55723090 1.06250562
0.09443273 -0.55736432 1.06235676
0.09439578 -0.55749775 1.06220790
0.09435883 -0.55763118 1.06205904
0.09432188 -0.55776460 1.06191018
0.09428493 -0.55789803 1.06176132
0.09424798 -0.55803145 1.06161246
0.09421102 -0.55816488 1.06146360
0.09417407 -0.55829831 1.06131474
0.09413712 -0.55843173 1.06116588
0.09410017 -0.55856516 1.06101702
