ply
format ascii 1.0
element vertex 1368
property float x
property float y
property float z
end_header
-0.06503854 -0.64929362 0.52068233
-0.06508573 -0.64927367 0.52049558
-0.06513291 -0.64925371 0.52030882
-0.06518010 -0.64923375 0.52012207
-0.06522728 -0.64921379 0.51993531
-0.06527447 -0.64919384 0.51974856
-0.06532165 -0.64917388 0.51956181
-0.06536884 -0.64915392 0.51937505
-0.06541603 -0.64913396 0.51918830
-0.06546321 -0.64911401 0.51900154
-0.06551040 -0.64909405 0.51881479
-0.06555758 -0.64907409 0.51862804
-0.06560477 -0.64905413 0.51844128
-0.06565195 -0.64903418 0.51825453
-0.06569914 -0.64901422 0.51806778
-0.06574632 -0.64899426 0.51788102
-0.03925606 -0.68388704 0.62408932
-0.03930498 -0.68386635 0.62389572
-0.03935389 -0.68384566 0.62370212
-0.03940281 -0.68382497 0.62350852
-0.03945172 -0.68380429 0.62331492
-0.04023171 -0.66818304 0.61884935
-0.04028952 -0.66850336 0.61865161
-0.04034191 -0.66863807 0.61845838
-0.04039068 -0.66864879 0.61826824
-0.04043852 -0.66862855 0.61807889
-0.04184072 -0.66850652 0.61257160
-0.04189057 -0.66854829 0.61237995
-0.04194341 -0.66868312 0.61218501
-0.04199130 -0.66866286 0.61199546
-0.04203919 -0.66864261 0.61180591
-0.04208608 -0.66859137 0.61161746
-0.04213198 -0.66850904 0.61143017
-0.04217485 -0.66833379 0.61124629
-0.04222272 -0.66831354 0.61105681
-0.04227060 -0.66829329 0.61086733
-0.04232049 -0.66833505 0.61067553
-0.04236836 -0.66831480 0.61048603
-0.04241726 -0.66832552 0.61029536
-0.04247124 -0.66849133 0.61009874
-0.04252117 -0.66853312 0.60990678
-0.04257111 -0.66857492 0.60971479
-0.04262106 -0.66861671 0.60952276
-0.04266794 -0.66856542 0.60933437
-0.04271585 -0.66854516 0.60914477
-0.04276066 -0.66843183 0.60895888
-0.04281063 -0.66847361 0.60876680
-0.04285957 -0.66848437 0.60857594
-0.04291059 -0.66855718 0.60838253
-0.04296058 -0.66859901 0.60819034
-0.04300850 -0.66857874 0.60800068
-0.04305537 -0.66852740 0.60781233
-0.04310120 -0.66844510 0.60762530
-0.04314700 -0.66836280 0.60743830
-0.04319596 -0.66837355 0.60724737
-0.04324493 -0.66838430 0.60705642
-0.04329495 -0.66842607 0.60686411
-0.04334392 -0.66843687 0.60667311
-0.04339502 -0.66850970 0.60647938
-0.04344827 -0.66864467 0.60628285
-0.04349940 -0.66871754 0.60608899
-0.04355696 -0.66897695 0.60588674
-0.04361028 -0.66911212 0.60568991
-0.04939116 -0.68810397 0.58474240
-0.04944069 -0.68808302 0.58454635
-0.05518659 -0.68565273 0.56180476
-0.05523613 -0.68563178 0.56160871
-0.05528566 -0.68561083 0.56141266
-0.05533519 -0.68558988 0.56121661
-0.05538473 -0.68556893 0.56102057
-0.05543426 -0.68554798 0.56082452
-0.05570419 -0.68489605 0.55970767
-0.05576051 -0.68500659 0.55949688
-0.05581001 -0.68498565 0.55930095
-0.06197270 -0.68278248 0.53494615
-0.06202223 -0.68276153 0.53475011
-0.06207176 -0.68274058 0.53455406
-0.06212130 -0.68271963 0.53435801
-0.06217083 -0.68269868 0.53416196
-0.06187940 -0.65052289 0.53240372
-0.06192659 -0.65050294 0.53221697
-0.06197377 -0.65048298 0.53203021
-0.06202096 -0.65046302 0.53184346
-0.06206814 -0.65044306 0.53165671
-0.06211533 -0.65042311 0.53146995
-0.06216251 -0.65040315 0.53128320
-0.06220970 -0.65038319 0.53109644
-0.06225688 -0.65036323 0.53090969
-0.06230407 -0.65034328 0.53072294
-0.06235125 -0.65032332 0.53053618
-0.06239844 -0.65030336 0.53034943
-0.06244562 -0.65028340 0.53016268
-0.06249281 -0.65026345 0.52997592
-0.06253999 -0.65024349 0.52978917
-0.06258718 -0.65022353 0.52960241
-0.06263437 -0.65020357 0.52941566
-0.06268155 -0.65018362 0.52922890
-0.06272874 -0.65016366 0.52904215
-0.06277592 -0.65014370 0.52885540
-0.06282311 -0.65012374 0.52866864
-0.06287029 -0.65010379 0.52848189
-0.06291748 -0.65008383 0.52829513
-0.06296466 -0.65006387 0.52810838
-0.06301185 -0.65004391 0.52792163
-0.06305903 -0.65002396 0.52773487
-0.06310622 -0.65000400 0.52754812
-0.06315340 -0.64998404 0.52736136
-0.06320059 -0.64996408 0.52717461
-0.06324778 -0.64994412 0.52698785
-0.06329496 -0.64992417 0.52680110
-0.06334215 -0.64990421 0.52661435
-0.06338933 -0.64988425 0.52642759
-0.06343652 -0.64986429 0.52624084
-0.06348370 -0.64984434 0.52605408
-0.06353089 -0.64982438 0.52586733
-0.06357807 -0.64980442 0.52568058
-0.06362526 -0.64978446 0.52549382
-0.06367244 -0.64976451 0.52530707
-0.06371963 -0.64974455 0.52512032
-0.06376681 -0.64972459 0.52493356
-0.06381400 -0.64970463 0.52474681
-0.06386118 -0.64968468 0.52456005
-0.06390837 -0.64966472 0.52437330
-0.06395556 -0.64964476 0.52418654
-0.06400274 -0.64962480 0.52399979
-0.06404993 -0.64960485 0.52381304
-0.06409711 -0.64958489 0.52362628
-0.06414430 -0.64956493 0.52343953
-0.06419148 -0.64954497 0.52325277
-0.06423867 -0.64952502 0.52306602
-0.06428585 -0.64950506 0.52287927
-0.06433304 -0.64948510 0.52269251
-0.06438022 -0.64946514 0.52250576
-0.06442741 -0.64944519 0.52231900
-0.06447459 -0.64942523 0.52213225
-0.06452178 -0.64940527 0.52194549
-0.06456896 -0.64938531 0.52175874
-0.06461615 -0.64936536 0.52157199
-0.06466334 -0.64934540 0.52138523
-0.06471052 -0.64932544 0.52119848
-0.06475771 -0.64930548 0.52101172
-0.06480489 -0.64928553 0.52082497
-0.06485208 -0.64926557 0.52063822
-0.06489926 -0.64924561 0.52045146
-0.06494645 -0.64922565 0.52026471
-0.06499363 -0.64920570 0.52007796
-0.06504082 -0.64918574 0.51989120
-0.06508800 -0.64916578 0.51970445
-0.06513519 -0.64914582 0.51951769
-0.06518237 -0.64912587 0.51933094
-0.06522956 -0.64910591 0.51914418
-0.06527675 -0.64908595 0.51895743
-0.06532393 -0.64906599 0.51877068
-0.06537112 -0.64904604 0.51858392
-0.06541830 -0.64902608 0.51839717
-0.06546549 -0.64900612 0.51821041
-0.06551267 -0.64898616 0.51802366
-0.06555986 -0.64896621 0.51783691
-0.03906276 -0.68385796 0.62404359
-0.03911168 -0.68383727 0.62384999
-0.03916059 -0.68381658 0.62365639
-0.03920863 -0.68376346 0.62346335
-0.03925842 -0.68377520 0.62326919
-0.04004370 -0.66818552 0.61880390
-0.04009961 -0.66844397 0.61860767
-0.04015196 -0.66857862 0.61841444
-0.04020070 -0.66858939 0.61822431
-0.04164859 -0.66838505 0.61253005
-0.04170037 -0.66848884 0.61233626
-0.04175316 -0.66862366 0.61214132
-0.04180204 -0.66863439 0.61195069
-0.04185190 -0.66867621 0.61175891
-0.04189782 -0.66859387 0.61157158
-0.04193779 -0.66832558 0.61139102
-0.04198566 -0.66830533 0.61120154
-0.04203354 -0.66828508 0.61101206
-0.04208141 -0.66826483 0.61082257
-0.04213128 -0.66830658 0.61063077
-0.04217916 -0.66828633 0.61044127
-0.04222805 -0.66829705 0.61025060
-0.04228197 -0.66846285 0.61005396
-0.04233087 -0.66847362 0.60986320
-0.04238180 -0.66854644 0.60967000
-0.04243174 -0.66858823 0.60947797
-0.04247965 -0.66856797 0.60928836
-0.04252756 -0.66854770 0.60909874
-0.04257444 -0.66849642 0.60891037
-0.04262235 -0.66847615 0.60872076
-0.04267334 -0.66854896 0.60852737
-0.04272331 -0.66859079 0.60833519
-0.04277844 -0.66878784 0.60813657
-0.04283051 -0.66889182 0.60794170
-0.04287846 -0.66887154 0.60775194
-0.04292640 -0.66885126 0.60756219
-0.04296289 -0.66848945 0.60738693
-0.04300977 -0.66843811 0.60719860
-0.04305769 -0.66841785 0.60700896
-0.04310665 -0.66842865 0.60681797
-0.04315667 -0.66847041 0.60662561
-0.04320984 -0.66860537 0.60642913
-0.04326200 -0.66870931 0.60623392
-0.04331840 -0.66893759 0.60603312
-0.04337273 -0.66910389 0.60583494
-0.04342282 -0.66914579 0.60564226
-0.04810567 -0.68853544 0.58900915
-0.04815521 -0.68851449 0.58881310
-0.04870008 -0.68828403 0.58665657
-0.04874961 -0.68826308 0.58646052
-0.04879914 -0.68824213 0.58626447
-0.04894774 -0.68817927 0.58567633
-0.04899728 -0.68815832 0.58548028
-0.04904681 -0.68813737 0.58528423
-0.04909634 -0.68811642 0.58508818
-0.04914588 -0.68809547 0.58489214
-0.04919541 -0.68807452 0.58469609
-0.04924495 -0.68805357 0.58450004
-0.04929448 -0.68803262 0.58430399
-0.05504038 -0.68560233 0.56156240
-0.05508991 -0.68558138 0.56136635
-0.05513944 -0.68556043 0.56117030
-0.05518898 -0.68553948 0.56097426
-0.05548322 -0.68437408 0.55971706
-0.05553268 -0.68435316 0.55952131
-0.06182648 -0.68273208 0.53470380
-0.06187601 -0.68271113 0.53450775
-0.06192555 -0.68269018 0.53431170
-0.06159856 -0.65053475 0.53273312
-0.06164575 -0.65051480 0.53254636
-0.06169294 -0.65049484 0.53235961
-0.06174012 -0.65047488 0.53217286
-0.06178731 -0.65045492 0.53198610
-0.06183449 -0.65043497 0.53179935
-0.06188168 -0.65041501 0.53161259
-0.06192886 -0.65039505 0.53142584
-0.06197605 -0.65037509 0.53123908
-0.06202323 -0.65035514 0.53105233
-0.06207042 -0.65033518 0.53086558
-0.06211760 -0.65031522 0.53067882
-0.06216479 -0.65029526 0.53049207
-0.06221197 -0.65027531 0.53030531
-0.06225916 -0.65025535 0.53011856
-0.06230634 -0.65023539 0.52993181
-0.06235353 -0.65021543 0.52974505
-0.06240072 -0.65019548 0.52955830
-0.06244790 -0.65017552 0.52937154
-0.06249509 -0.65015556 0.52918479
-0.06254227 -0.65013560 0.52899803
-0.06258946 -0.65011565 0.52881128
-0.06263664 -0.65009569 0.52862453
-0.06268383 -0.65007573 0.52843777
-0.06273101 -0.65005577 0.52825102
-0.06277820 -0.65003582 0.52806427
-0.06282538 -0.65001586 0.52787751
-0.06287257 -0.64999590 0.52769076
-0.06291975 -0.64997594 0.52750400
-0.06296694 -0.64995599 0.52731725
-0.06301412 -0.64993603 0.52713050
-0.06306131 -0.64991607 0.52694374
-0.06310850 -0.64989611 0.52675699
-0.06315568 -0.64987616 0.52657023
-0.06320287 -0.64985620 0.52638348
-0.06325005 -0.64983624 0.52619672
-0.06329724 -0.64981628 0.52600997
-0.06334442 -0.64979633 0.52582322
-0.06339161 -0.64977637 0.52563646
-0.06343879 -0.64975641 0.52544971
-0.06348598 -0.64973645 0.52526295
-0.06353316 -0.64971650 0.52507620
-0.06358035 -0.64969654 0.52488945
-0.06362753 -0.64967658 0.52470269
-0.06367472 -0.64965662 0.52451594
-0.06372191 -0.64963667 0.52432918
-0.06376909 -0.64961671 0.52414243
-0.06381628 -0.64959675 0.52395567
-0.06386346 -0.64957679 0.52376892
-0.06391065 -0.64955684 0.52358217
-0.06395783 -0.64953688 0.52339541
-0.06400502 -0.64951692 0.52320866
-0.06405220 -0.64949696 0.52302191
-0.06409939 -0.64947701 0.52283515
-0.06414657 -0.64945705 0.52264840
-0.06419376 -0.64943709 0.52246164
-0.06424094 -0.64941713 0.52227489
-0.06428813 -0.64939717 0.52208814
-0.06433531 -0.64937722 0.52190138
-0.06438250 -0.64935726 0.52171463
-0.06442969 -0.64933730 0.52152787
-0.06447687 -0.64931734 0.52134112
-0.06452406 -0.64929739 0.52115436
-0.06457124 -0.64927743 0.52096761
-0.06461843 -0.64925747 0.52078086
-0.06466561 -0.64923751 0.52059410
-0.06471280 -0.64921756 0.52040735
-0.06475998 -0.64919760 0.52022059
-0.06480717 -0.64917764 0.52003384
-0.06485435 -0.64915768 0.51984709
-0.06490154 -0.64913773 0.51966033
-0.06494872 -0.64911777 0.51947358
-0.06499591 -0.64909781 0.51928682
-0.06504309 -0.64907785 0.51910007
-0.06509028 -0.64905790 0.51891331
-0.06513747 -0.64903794 0.51872656
-0.06518465 -0.64901798 0.51853981
-0.06523184 -0.64899802 0.51835305
-0.06527902 -0.64897807 0.51816630
-0.06532621 -0.64895811 0.51797955
-0.06537339 -0.64893815 0.51779279
-0.03886946 -0.68382888 0.62399786
-0.03891837 -0.68380819 0.62380426
-0.03896729 -0.68378750 0.62361065
-0.03901534 -0.68373438 0.62341762
-0.03906512 -0.68374612 0.62322345
-0.03916295 -0.68370474 0.62283625
-0.03985479 -0.66815709 0.61875920
-0.03990972 -0.66838453 0.61856374
-0.03996202 -0.66851917 0.61837051
-0.04000986 -0.66849893 0.61818118
-0.04150729 -0.66833634 0.61229583
-0.04156099 -0.66850214 0.61209982
-0.04161473 -0.66866799 0.61190371
-0.04166262 -0.66864773 0.61171413
-0.04171052 -0.66862747 0.61152456
-0.04174860 -0.66829711 0.61134626
-0.04179647 -0.66827686 0.61115678
-0.04184632 -0.66831862 0.61096501
-0.04189420 -0.66829837 0.61077551
-0.04194208 -0.66827812 0.61058601
-0.04198996 -0.66825787 0.61039651
-0.04203983 -0.66829961 0.61020465
-0.04209370 -0.66846540 0.61000799
-0.04214260 -0.66847617 0.60981722
-0.04219250 -0.66851796 0.60962522
-0.04224544 -0.66865282 0.60942953
-0.04229435 -0.66866364 0.60923865
-0.04234227 -0.66864337 0.60904900
-0.04238817 -0.66856100 0.60886185
-0.04243608 -0.66854073 0.60867221
-0.04248603 -0.66858257 0.60848004
-0.04254007 -0.66874853 0.60828276
-0.04259209 -0.66885251 0.60808791
-0.04264208 -0.66889439 0.60789558
-0.04269208 -0.66893626 0.60770321
-0.04274003 -0.66891598 0.60751343
-0.04278488 -0.66880248 0.60732762
-0.04282869 -0.66865797 0.60714318
-0.04287041 -0.66845144 0.60696149
-0.04291937 -0.66846218 0.60677048
-0.04296937 -0.66850399 0.60657810
-0.04302252 -0.66863895 0.60638159
-0.04307359 -0.66871188 0.60618773
-0.04312887 -0.66890907 0.60598828
-0.04318314 -0.66907536 0.60579008
-0.04323322 -0.66911726 0.60559740
-0.04786040 -0.68852694 0.58915889
-0.04790993 -0.68850599 0.58896284
-0.04795946 -0.68848504 0.58876679
-0.04800900 -0.68846409 0.58857074
-0.04845480 -0.68827553 0.58680631
-0.04850433 -0.68825458 0.58661026
-0.04855387 -0.68823363 0.58641421
-0.04860340 -0.68821268 0.58621816
-0.04865294 -0.68819173 0.58602212
-0.04870247 -0.68817077 0.58582607
-0.04875200 -0.68814982 0.58563002
-0.04880154 -0.68812887 0.58543397
-0.04885107 -0.68810792 0.58523792
-0.04890060 -0.68808697 0.58504187
-0.04895014 -0.68806602 0.58484583
-0.04899967 -0.68804507 0.58464978
-0.04904920 -0.68802412 0.58445373
-0.04909874 -0.68800317 0.58425768
-0.04914827 -0.68798222 0.58406163
-0.05372089 -0.65375978 0.56312992
-0.05381526 -0.65371986 0.56275641
-0.05388090 -0.65405846 0.56252878
-0.05393735 -0.65421794 0.56232141
-0.05398921 -0.65428772 0.56212422
-0.06136491 -0.65052666 0.53287576
-0.06141210 -0.65050670 0.53268900
-0.06145928 -0.65048674 0.53250225
-0.06150647 -0.65046678 0.53231549
-0.06155365 -0.65044683 0.53212874
-0.06160084 -0.65042687 0.53194199
-0.06164803 -0.65040691 0.53175523
-0.06169521 -0.65038695 0.53156848
-0.06174240 -0.65036700 0.53138173
-0.06178958 -0.65034704 0.53119497
-0.06183677 -0.65032708 0.53100821
-0.06188395 -0.65030712 0.53082146
-0.06193114 -0.65028717 0.53063471
-0.06197832 -0.65026721 0.53044795
-0.06202551 -0.65024725 0.53026120
-0.06207269 -0.65022729 0.53007445
-0.06211988 -0.65020734 0.52988769
-0.06216706 -0.65018738 0.52970094
-0.06221425 -0.65016742 0.52951418
-0.06226144 -0.65014746 0.52932743
-0.06230862 -0.65012751 0.52914068
-0.06235581 -0.65010755 0.52895392
-0.06240299 -0.65008759 0.52876717
-0.06245018 -0.65006763 0.52858041
-0.06249736 -0.65004768 0.52839366
-0.06254455 -0.65002772 0.52820690
-0.06259173 -0.65000776 0.52802015
-0.06263892 -0.64998780 0.52783340
-0.06268610 -0.64996785 0.52764664
-0.06273329 -0.64994789 0.52745989
-0.06278047 -0.64992793 0.52727313
-0.06282766 -0.64990797 0.52708638
-0.06287484 -0.64988802 0.52689963
-0.06292203 -0.64986806 0.52671287
-0.06296922 -0.64984810 0.52652612
-0.06301640 -0.64982814 0.52633937
-0.06306359 -0.64980819 0.52615261
-0.06311077 -0.64978823 0.52596585
-0.06315796 -0.64976827 0.52577910
-0.06320514 -0.64974831 0.52559235
-0.06325233 -0.64972836 0.52540559
-0.06329951 -0.64970840 0.52521884
-0.06334670 -0.64968844 0.52503209
-0.06339388 -0.64966848 0.52484533
-0.06344107 -0.64964853 0.52465858
-0.06348825 -0.64962857 0.52447182
-0.06353544 -0.64960861 0.52428507
-0.06358262 -0.64958865 0.52409832
-0.06362981 -0.64956870 0.52391156
-0.06367700 -0.64954874 0.52372481
-0.06372418 -0.64952878 0.52353805
-0.06377137 -0.64950882 0.52335130
-0.06381855 -0.64948887 0.52316454
-0.06386574 -0.64946891 0.52297779
-0.06391292 -0.64944895 0.52279104
-0.06396011 -0.64942899 0.52260428
-0.06400729 -0.64940904 0.52241753
-0.06405448 -0.64938908 0.52223077
-0.06410166 -0.64936912 0.52204402
-0.06414885 -0.64934916 0.52185727
-0.06419603 -0.64932921 0.52167051
-0.06424322 -0.64930925 0.52148376
-0.06429040 -0.64928929 0.52129701
-0.06433759 -0.64926933 0.52111025
-0.06438478 -0.64924938 0.52092349
-0.06443196 -0.64922942 0.52073674
-0.06447915 -0.64920946 0.52054999
-0.06452633 -0.64918950 0.52036323
-0.06457352 -0.64916955 0.52017648
-0.06462070 -0.64914959 0.51998973
-0.06466789 -0.64912963 0.51980297
-0.06471507 -0.64910967 0.51961622
-0.06476226 -0.64908972 0.51942946
-0.06480944 -0.64906976 0.51924271
-0.06485663 -0.64904980 0.51905596
-0.06490381 -0.64902984 0.51886920
-0.06495100 -0.64900989 0.51868245
-0.06499819 -0.64898993 0.51849569
-0.06504537 -0.64896997 0.51830894
-0.06509256 -0.64895001 0.51812218
-0.06513974 -0.64893006 0.51793543
-0.06518693 -0.64891010 0.51774868
-0.03867617 -0.68379979 0.62395213
-0.03872508 -0.68377911 0.62375853
-0.03877400 -0.68375842 0.62356492
-0.03882119 -0.68367287 0.62337245
-0.03887183 -0.68371704 0.62317772
-0.03892074 -0.68369635 0.62298412
-0.03896966 -0.68367566 0.62279052
-0.03966587 -0.66812867 0.61871451
-0.03971986 -0.66832515 0.61851981
-0.03977211 -0.66845978 0.61832658
-0.03981994 -0.66843955 0.61813726
-0.04131620 -0.66824592 0.61225324
-0.04137081 -0.66844263 0.61205615
-0.04141966 -0.66845342 0.61186554
-0.04147335 -0.66861925 0.61166935
-0.04155941 -0.66826865 0.61130150
-0.04160729 -0.66824840 0.61111202
-0.04165810 -0.66832112 0.61091910
-0.04170500 -0.66826990 0.61073075
-0.04175288 -0.66824965 0.61054125
-0.04180075 -0.66822940 0.61035175
-0.04185061 -0.66827114 0.61015988
-0.04190442 -0.66843692 0.60996321
-0.04195529 -0.66850974 0.60977003
-0.04200320 -0.66848948 0.60958043
-0.04205808 -0.66868644 0.60938229
-0.04210500 -0.66863515 0.60919386
-0.04215292 -0.66861488 0.60900421
-0.04219883 -0.66853251 0.60881705
-0.04224674 -0.66851225 0.60862742
-0.04229667 -0.66855408 0.60843524
-0.04235066 -0.66872004 0.60823795
-0.04240264 -0.66882401 0.60804309
-0.04245261 -0.66886588 0.60785075
-0.04250259 -0.66890775 0.60765838
-0.04255054 -0.66888747 0.60746860
-0.04259747 -0.66883612 0.60728015
-0.04264337 -0.66875370 0.60709304
-0.04268823 -0.66864026 0.60690731
-0.04273411 -0.66855785 0.60672029
-0.04278410 -0.66859971 0.60652786
-0.04283411 -0.66864152 0.60633540
-0.04288412 -0.66868337 0.60614290
-0.04293622 -0.66878736 0.60594759
-0.04299147 -0.66898465 0.60574803
-0.04303944 -0.66896436 0.60555816
-0.04615578 -0.66382165 0.59289292
-0.04620110 -0.66374014 0.59270817
-0.04624878 -0.66371997 0.59251943
-0.04761512 -0.68851844 0.58930863
-0.04766466 -0.68849749 0.58911258
-0.04771419 -0.68847654 0.58891653
-0.04776372 -0.68845559 0.58872048
-0.04781326 -0.68843464 0.58852443
-0.04786279 -0.68841368 0.58832839
-0.04791232 -0.68839273 0.58813234
-0.04825906 -0.68824608 0.58676000
-0.04830859 -0.68822513 0.58656395
-0.04835813 -0.68820418 0.58636790
-0.04840766 -0.68818323 0.58617186
-0.04845719 -0.68816228 0.58597581
-0.04850673 -0.68814132 0.58577976
-0.04855626 -0.68812037 0.58558371
-0.04860579 -0.68809942 0.58538766
-0.04865533 -0.68807847 0.58519161
-0.04870486 -0.68805752 0.58499557
-0.04875440 -0.68803657 0.58479952
-0.04880393 -0.68801562 0.58460347
-0.04885346 -0.68799467 0.58440742
-0.04890300 -0.68797372 0.58421137
-0.04895253 -0.68795277 0.58401533
-0.05353443 -0.65373172 0.56308581
-0.05358161 -0.65371177 0.56289905
-0.05362880 -0.65369181 0.56271230
-0.05369891 -0.65412014 0.56247441
-0.05375073 -0.65418986 0.56227726
-0.05380257 -0.65425964 0.56208006
-0.05384826 -0.65420973 0.56189656
-0.05388933 -0.65407013 0.56172342
-0.05438569 -0.66087099 0.56036586
-0.05444291 -0.66103417 0.56015559
-0.05449065 -0.66101397 0.55996662
-0.06108408 -0.65053852 0.53320515
-0.06113127 -0.65051856 0.53301840
-0.06117846 -0.65049860 0.53283164
-0.06122564 -0.65047865 0.53264489
-0.06127283 -0.65045869 0.53245814
-0.06132001 -0.65043873 0.53227138
-0.06136720 -0.65041877 0.53208463
-0.06141438 -0.65039882 0.53189787
-0.06146157 -0.65037886 0.53171112
-0.06150875 -0.65035890 0.53152437
-0.06155594 -0.65033894 0.53133761
-0.06160312 -0.65031899 0.53115086
-0.06165031 -0.65029903 0.53096410
-0.06169749 -0.65027907 0.53077735
-0.06174468 -0.65025911 0.53059059
-0.06179186 -0.65023916 0.53040384
-0.06183905 -0.65021920 0.53021709
-0.06188624 -0.65019924 0.53003033
-0.06193342 -0.65017928 0.52984358
-0.06198061 -0.65015933 0.52965683
-0.06202779 -0.65013937 0.52947007
-0.06207498 -0.65011941 0.52928332
-0.06212216 -0.65009945 0.52909656
-0.06216935 -0.65007950 0.52890981
-0.06221653 -0.65005954 0.52872306
-0.06226372 -0.65003958 0.52853630
-0.06231090 -0.65001962 0.52834955
-0.06235809 -0.64999967 0.52816279
-0.06240527 -0.64997971 0.52797604
-0.06245246 -0.64995975 0.52778928
-0.06249965 -0.64993979 0.52760253
-0.06254683 -0.64991984 0.52741578
-0.06259402 -0.64989988 0.52722902
-0.06264120 -0.64987992 0.52704227
-0.06268839 -0.64985996 0.52685551
-0.06273557 -0.64984001 0.52666876
-0.06278276 -0.64982005 0.52648201
-0.06282994 -0.64980009 0.52629525
-0.06287713 -0.64978013 0.52610850
-0.06292431 -0.64976018 0.52592174
-0.06297150 -0.64974022 0.52573499
-0.06301868 -0.64972026 0.52554823
-0.06306587 -0.64970030 0.52536148
-0.06311305 -0.64968035 0.52517473
-0.06316024 -0.64966039 0.52498797
-0.06320743 -0.64964043 0.52480122
-0.06325461 -0.64962047 0.52461447
-0.06330180 -0.64960052 0.52442771
-0.06334898 -0.64958056 0.52424096
-0.06339617 -0.64956060 0.52405420
-0.06344335 -0.64954064 0.52386745
-0.06349054 -0.64952069 0.52368070
-0.06353772 -0.64950073 0.52349394
-0.06358491 -0.64948077 0.52330719
-0.06363209 -0.64946081 0.52312043
-0.06367928 -0.64944086 0.52293368
-0.06372646 -0.64942090 0.52274692
-0.06377365 -0.64940094 0.52256017
-0.06382083 -0.64938098 0.52237342
-0.06386802 -0.64936102 0.52218666
-0.06391521 -0.64934107 0.52199991
-0.06396239 -0.64932111 0.52181315
-0.06400958 -0.64930115 0.52162640
-0.06405676 -0.64928119 0.52143965
-0.06410395 -0.64926124 0.52125289
-0.06415113 -0.64924128 0.52106614
-0.06419832 -0.64922132 0.52087938
-0.06424550 -0.64920136 0.52069263
-0.06429269 -0.64918141 0.52050587
-0.06433987 -0.64916145 0.52031912
-0.06438706 -0.64914149 0.52013237
-0.06443424 -0.64912153 0.51994561
-0.06448143 -0.64910158 0.51975886
-0.06452861 -0.64908162 0.51957211
-0.06457580 -0.64906166 0.51938535
-0.06462299 -0.64904170 0.51919860
-0.06467017 -0.64902175 0.51901184
-0.06471736 -0.64900179 0.51882509
-0.06476454 -0.64898183 0.51863834
-0.06481173 -0.64896187 0.51845158
-0.06485891 -0.64894192 0.51826483
-0.06490610 -0.64892196 0.51807807
-0.06495328 -0.64890200 0.51789132
-0.06500047 -0.64888204 0.51770456
-0.03848286 -0.68377071 0.62390639
-0.03853178 -0.68375002 0.62371280
-0.03858069 -0.68372933 0.62351919
-0.03862791 -0.68364379 0.62332673
-0.03867852 -0.68368795 0.62313199
-0.03872744 -0.68366727 0.62293839
-0.03877635 -0.68364658 0.62274479
-0.03932835 -0.66797532 0.61924193
-0.03947696 -0.66810025 0.61866981
-0.03953087 -0.66829671 0.61847510
-0.03958308 -0.66843134 0.61828186
-0.03963091 -0.66841111 0.61809254
-0.03966818 -0.66801937 0.61791298
-0.04092148 -0.66783388 0.61298200
-0.04096931 -0.66781365 0.61279269
-0.04101808 -0.66782439 0.61260231
-0.04106875 -0.66789703 0.61240976
-0.04112420 -0.66812448 0.61221175
-0.04117491 -0.66819722 0.61201904
-0.04122661 -0.66830093 0.61182519
-0.04127161 -0.66818770 0.61163904
-0.04131851 -0.66813649 0.61145071
-0.04136638 -0.66811624 0.61126126
-0.04141714 -0.66818891 0.61106841
-0.04146791 -0.66826168 0.61087548
-0.04151482 -0.66821041 0.61068714
-0.04156270 -0.66819016 0.61049765
-0.04161155 -0.66820093 0.61030698
-0.04166138 -0.66824267 0.61011511
-0.04171514 -0.66840845 0.60991843
-0.04176599 -0.66848126 0.60972525
-0.04181783 -0.66858509 0.60953079
-0.04186871 -0.66865795 0.60933749
-0.04191564 -0.66860666 0.60914906
-0.04196356 -0.66858639 0.60895941
-0.04200949 -0.66850403 0.60877226
-0.04205740 -0.66848376 0.60858262
-0.04210632 -0.66849451 0.60839172
-0.04215924 -0.66862945 0.60819569
-0.04221118 -0.66873341 0.60800084
-0.04226213 -0.66880630 0.60780723
-0.04231109 -0.66881710 0.60761617
-0.04236005 -0.66882789 0.60742509
-0.04240800 -0.66880761 0.60723532
-0.04245493 -0.66875626 0.60704688
-0.04250185 -0.66870491 0.60685847
-0.04254878 -0.66865357 0.60667007
-0.04259672 -0.66863329 0.60648032
-0.04264671 -0.66867514 0.60628784
-0.04269465 -0.66865487 0.60609808
-0.04274569 -0.66872778 0.60590415
-0.04279880 -0.66886288 0.60570737
-0.04284987 -0.66893584 0.60551331
-0.04289992 -0.66897773 0.60532062
-0.04352592 -0.67162681 0.60309179
-0.04576487 -0.66356741 0.59362302
-0.04581488 -0.66360852 0.59343041
-0.04586607 -0.66368033 0.59323577
-0.04591728 -0.66375213 0.59304108
-0.04596496 -0.66373196 0.59285233
-0.04601265 -0.66371179 0.59266359
-0.04606034 -0.66369162 0.59247485
-0.04610803 -0.66367145 0.59228611
-0.04741937 -0.68848899 0.58926232
-0.04746891 -0.68846804 0.58906627
-0.04751844 -0.68844709 0.58887022
-0.04756797 -0.68842614 0.58867417
-0.04761751 -0.68840518 0.58847812
-0.04766704 -0.68838423 0.58828207
-0.04771658 -0.68836328 0.58808603
-0.04776611 -0.68834233 0.58788998
-0.04781564 -0.68832138 0.58769393
-0.04786518 -0.68830043 0.58749788
-0.04801378 -0.68823758 0.58690974
-0.04806331 -0.68821663 0.58671369
-0.04811284 -0.68819568 0.58651764
-0.04816238 -0.68817473 0.58632159
-0.04821191 -0.68815378 0.58612555
-0.04826145 -0.68813282 0.58592950
-0.04831098 -0.68811187 0.58573345
-0.04836051 -0.68809092 0.58553740
-0.04841005 -0.68806997 0.58534135
-0.04845958 -0.68804902 0.58514530
-0.04850911 -0.68802807 0.58494926
-0.04855865 -0.68800712 0.58475321
-0.04860818 -0.68798617 0.58455716
-0.04865771 -0.68796522 0.58436111
-0.04870725 -0.68794427 0.58416506
-0.04875678 -0.68792332 0.58396901
-0.04880631 -0.68790237 0.58377297
-0.05155550 -0.67100989 0.57154900
-0.05160535 -0.67102092 0.57135440
-0.05165080 -0.67093753 0.57116903
-0.05334796 -0.65370367 0.56304169
-0.05339515 -0.65368371 0.56285494
-0.05344233 -0.65366375 0.56266818
-0.05350624 -0.65397244 0.56244392
-0.05355954 -0.65407210 0.56224337
-0.05361133 -0.65414181 0.56204620
-0.05365856 -0.65412184 0.56185929
-0.05370426 -0.65407199 0.56167582
-0.05374995 -0.65402209 0.56149238
-0.05414149 -0.66071008 0.56052785
-0.05419706 -0.66084261 0.56032123
-0.05425423 -0.66100578 0.56011095
-0.05430513 -0.66104670 0.55991485
-0.05434499 -0.66087369 0.55974376
-0.06080325 -0.65055038 0.53353455
-0.06085043 -0.65053042 0.53334779
-0.06089762 -0.65051046 0.53316104
-0.06094480 -0.65049051 0.53297429
-0.06099199 -0.65047055 0.53278753
-0.06103918 -0.65045059 0.53260077
-0.06108636 -0.65043063 0.53241402
-0.06113355 -0.65041068 0.53222727
-0.06118073 -0.65039072 0.53204051
-0.06122792 -0.65037076 0.53185376
-0.06127510 -0.65035080 0.53166701
-0.06132229 -0.65033085 0.53148025
-0.06136947 -0.65031089 0.53129350
-0.06141666 -0.65029093 0.53110674
-0.06146384 -0.65027097 0.53091999
-0.06151103 -0.65025102 0.53073324
-0.06155821 -0.65023106 0.53054648
-0.06160540 -0.65021110 0.53035973
-0.06165259 -0.65019114 0.53017297
-0.06169977 -0.65017119 0.52998622
-0.06174696 -0.65015123 0.52979946
-0.06179414 -0.65013127 0.52961271
-0.06184133 -0.65011131 0.52942596
-0.06188851 -0.65009136 0.52923920
-0.06193570 -0.65007140 0.52905245
-0.06198288 -0.65005144 0.52886569
-0.06203007 -0.65003148 0.52867894
-0.06207725 -0.65001153 0.52849219
-0.06212444 -0.64999157 0.52830543
-0.06217162 -0.64997161 0.52811868
-0.06221881 -0.64995165 0.52793193
-0.06226599 -0.64993170 0.52774517
-0.06231318 -0.64991174 0.52755841
-0.06236037 -0.64989178 0.52737166
-0.06240755 -0.64987182 0.52718491
-0.06245474 -0.64985187 0.52699815
-0.06250192 -0.64983191 0.52681140
-0.06254911 -0.64981195 0.52662465
-0.06259629 -0.64979199 0.52643789
-0.06264348 -0.64977204 0.52625114
-0.06269066 -0.64975208 0.52606438
-0.06273785 -0.64973212 0.52587763
-0.06278503 -0.64971216 0.52569088
-0.06283222 -0.64969221 0.52550412
-0.06287940 -0.64967225 0.52531737
-0.06292659 -0.64965229 0.52513061
-0.06297377 -0.64963233 0.52494386
-0.06302096 -0.64961238 0.52475710
-0.06306814 -0.64959242 0.52457035
-0.06311533 -0.64957246 0.52438360
-0.06316252 -0.64955250 0.52419684
-0.06320970 -0.64953255 0.52401009
-0.06325689 -0.64951259 0.52382333
-0.06330407 -0.64949263 0.52363658
-0.06335126 -0.64947267 0.52344983
-0.06339844 -0.64945272 0.52326307
-0.06344563 -0.64943276 0.52307632
-0.06349281 -0.64941280 0.52288957
-0.06354000 -0.64939284 0.52270281
-0.06358718 -0.64937289 0.52251605
-0.06363437 -0.64935293 0.52232930
-0.06368156 -0.64933297 0.52214255
-0.06372874 -0.64931301 0.52195579
-0.06377593 -0.64929306 0.52176904
-0.06382311 -0.64927310 0.52158229
-0.06387030 -0.64925314 0.52139553
-0.06391748 -0.64923318 0.52120878
-0.06396467 -0.64921323 0.52102202
-0.06401185 -0.64919327 0.52083527
-0.06405904 -0.64917331 0.52064852
-0.06410622 -0.64915335 0.52046176
-0.06415341 -0.64913340 0.52027501
-0.06420059 -0.64911344 0.52008825
-0.06424778 -0.64909348 0.51990150
-0.06429496 -0.64907352 0.51971474
-0.06434215 -0.64905357 0.51952799
-0.06438934 -0.64903361 0.51934124
-0.06443652 -0.64901365 0.51915448
-0.06448371 -0.64899369 0.51896773
-0.06453089 -0.64897373 0.51878097
-0.06457808 -0.64895378 0.51859422
-0.06462526 -0.64893382 0.51840747
-0.06467245 -0.64891386 0.51822071
-0.06471963 -0.64889390 0.51803396
-0.06476682 -0.64887395 0.51784721
-0.06481400 -0.64885399 0.51766045
-0.03828872 -0.68370920 0.62386121
-0.03833764 -0.68368851 0.62366761
-0.03838739 -0.68370025 0.62347346
-0.03843546 -0.68364713 0.62328043
-0.03848522 -0.68365887 0.62308626
-0.03853414 -0.68363818 0.62289266
-0.03858305 -0.68361749 0.62269906
-0.03909425 -0.66805991 0.61938418
-0.03914291 -0.66807064 0.61919425
-0.03918984 -0.66801948 0.61900582
-0.03924023 -0.66809204 0.61881433
-0.03928976 -0.66813372 0.61862357
-0.03934190 -0.66826828 0.61843040
-0.03939319 -0.66837189 0.61823794
-0.03944102 -0.66835166 0.61804863
-0.03948013 -0.66802189 0.61786747
-0.03952707 -0.66797072 0.61767907
-0.03957487 -0.66795050 0.61748986
-0.03962268 -0.66793028 0.61730065
-0.03967136 -0.66794100 0.61711059
-0.03972006 -0.66795172 0.61692051
-0.04073246 -0.66780544 0.61293728
-0.04078122 -0.66781618 0.61274691
-0.04083186 -0.66788882 0.61255438
-0.04088064 -0.66789950 0.61236397
-0.04093037 -0.66794121 0.61217244
-0.04098294 -0.66807578 0.61197759
-0.04103174 -0.66808651 0.61178707
-0.04107770 -0.66800433 0.61159987
-0.04112556 -0.66798409 0.61141046
-0.04117532 -0.66802578 0.61121878
-0.04122509 -0.66806754 0.61102707
-0.04127679 -0.66817122 0.61083303
-0.04132467 -0.66815097 0.61064354
-0.04137351 -0.66816169 0.61045290
-0.04142234 -0.66817247 0.61026222
-0.04147216 -0.66821420 0.61007035
-0.04152587 -0.66837997 0.60987365
-0.04157669 -0.66845278 0.60968046
-0.04162850 -0.66855660 0.60948600
-0.04167837 -0.66859844 0.60929391
-0.04172628 -0.66857817 0.60910426
-0.04177322 -0.66852682 0.60891586
-0.04181916 -0.66844452 0.60872871
-0.04186707 -0.66842426 0.60853909
-0.04191697 -0.66846602 0.60834693
-0.04196786 -0.66853886 0.60815344
-0.04201876 -0.66861175 0.60795990
-0.04207069 -0.66871565 0.60776501
-0.04212062 -0.66875752 0.60757265
-0.04216957 -0.66876831 0.60738159
-0.04221852 -0.66877910 0.60719049
-0.04226647 -0.66875882 0.60700072
-0.04231341 -0.66870748 0.60681230
-0.04236135 -0.66868720 0.60662254
-0.04240930 -0.66866692 0.60643278
-0.04245724 -0.66864664 0.60624301
-0.04250722 -0.66868849 0.60605049
-0.04255619 -0.66869927 0.60585932
-0.04260926 -0.66883436 0.60566253
-0.04266236 -0.66896950 0.60546565
-0.04271137 -0.66898027 0.60527435
-0.04276347 -0.66908440 0.60507875
-0.04327989 -0.67139908 0.60324812
-0.04333550 -0.67159816 0.60304674
-0.04338795 -0.67170324 0.60284985
-0.04547653 -0.66345690 0.59396358
-0.04552535 -0.66346732 0.59377300
-0.04557881 -0.66360034 0.59357452
-0.04562997 -0.66367215 0.59337991
-0.04567881 -0.66368262 0.59318921
-0.04572650 -0.66366245 0.59300048
-0.04577418 -0.66364228 0.59281176
-0.04582186 -0.66362211 0.59262303
-0.04587189 -0.66366327 0.59243026
-0.04591957 -0.66364310 0.59224152
-0.04596726 -0.66362293 0.59205278
-0.04727317 -0.68843859 0.58901996
-0.04732270 -0.68841764 0.58882391
-0.04737223 -0.68839669 0.58862786
-0.04742177 -0.68837573 0.58843181
-0.04747130 -0.68835478 0.58823577
-0.04752083 -0.68833383 0.58803972
-0.04757037 -0.68831288 0.58784367
-0.04761990 -0.68829193 0.58764762
-0.04766944 -0.68827098 0.58745157
-0.04771897 -0.68825003 0.58725553
-0.04776850 -0.68822908 0.58705948
-0.04781804 -0.68820813 0.58686343
-0.04786757 -0.68818718 0.58666738
-0.04791710 -0.68816623 0.58647133
-0.04796664 -0.68814528 0.58627528
-0.04801617 -0.68812433 0.58607924
-0.04806570 -0.68810337 0.58588319
-0.04811524 -0.68808242 0.58568714
-0.04816477 -0.68806147 0.58549109
-0.04821431 -0.68804052 0.58529504
-0.04826384 -0.68801957 0.58509900
-0.04831337 -0.68799862 0.58490295
-0.04836291 -0.68797767 0.58470690
-0.04841244 -0.68795672 0.58451085
-0.04846197 -0.68793577 0.58431480
-0.04851151 -0.68791482 0.58411875
-0.04856104 -0.68789387 0.58392271
-0.04861057 -0.68787292 0.58372666
-0.05110501 -0.67070610 0.57249750
-0.05115337 -0.67068564 0.57230609
-0.05120029 -0.67063381 0.57211771
-0.05124864 -0.67061336 0.57192631
-0.05129990 -0.67065571 0.57172882
-0.05136427 -0.67098112 0.57150376
-0.05141412 -0.67099215 0.57130916
-0.05145959 -0.67090876 0.57112379
-0.05148752 -0.67044823 0.57097548
-0.05311431 -0.65369557 0.56318433
-0.05316150 -0.65367562 0.56299758
-0.05320868 -0.65365566 0.56281082
-0.05325587 -0.65363570 0.56262407
-0.05330305 -0.65361574 0.56243731
-0.05336689 -0.65392441 0.56221293
-0.05342168 -0.65405393 0.56200891
-0.05347042 -0.65406389 0.56181857
-0.05351917 -0.65407379 0.56162822
-0.05389121 -0.66042718 0.56070389
-0.05394981 -0.66062065 0.56049032
-0.05400376 -0.66072259 0.56028727
-0.05405305 -0.66073293 0.56009482
-0.05411330 -0.66095720 0.55987735
-0.05415635 -0.66084531 0.55969913
-0.06052241 -0.65056224 0.53386394
-0.06056960 -0.65054228 0.53367719
-0.06061678 -0.65052233 0.53349043
-0.06066397 -0.65050237 0.53330368
-0.06071115 -0.65048241 0.53311692
-0.06075834 -0.65046245 0.53293017
-0.06080552 -0.65044250 0.53274342
-0.06085271 -0.65042254 0.53255666
-0.06089990 -0.65040258 0.53236991
-0.06094708 -0.65038262 0.53218315
-0.06099427 -0.65036267 0.53199640
-0.06104145 -0.65034271 0.53180964
-0.06108864 -0.65032275 0.53162289
-0.06113582 -0.65030279 0.53143614
-0.06118301 -0.65028284 0.53124938
-0.06123019 -0.65026288 0.53106263
-0.06127738 -0.65024292 0.53087587
-0.06132456 -0.65022296 0.53068912
-0.06137175 -0.65020300 0.53050237
-0.06141893 -0.65018305 0.53031561
-0.06146612 -0.65016309 0.53012886
-0.06151330 -0.65014313 0.52994211
-0.06156049 -0.65012317 0.52975535
-0.06160768 -0.65010322 0.52956860
-0.06165486 -0.65008326 0.52938184
-0.06170205 -0.65006330 0.52919509
-0.06174923 -0.65004334 0.52900833
-0.06179642 -0.65002339 0.52882158
-0.06184360 -0.65000343 0.52863483
-0.06189079 -0.64998347 0.52844807
-0.06193797 -0.64996351 0.52826132
-0.06198516 -0.64994356 0.52807456
-0.06203234 -0.64992360 0.52788781
-0.06207953 -0.64990364 0.52770106
-0.06212671 -0.64988368 0.52751430
-0.06217390 -0.64986373 0.52732755
-0.06222109 -0.64984377 0.52714079
-0.06226827 -0.64982381 0.52695404
-0.06231546 -0.64980385 0.52676728
-0.06236264 -0.64978390 0.52658053
-0.06240983 -0.64976394 0.52639378
-0.06245701 -0.64974398 0.52620702
-0.06250420 -0.64972402 0.52602027
-0.06255138 -0.64970407 0.52583351
-0.06259857 -0.64968411 0.52564676
-0.06264575 -0.64966415 0.52546001
-0.06269294 -0.64964419 0.52527325
-0.06274012 -0.64962424 0.52508650
-0.06278731 -0.64960428 0.52489975
-0.06283449 -0.64958432 0.52471299
-0.06288168 -0.64956436 0.52452624
-0.06292887 -0.64954441 0.52433948
-0.06297605 -0.64952445 0.52415273
-0.06302324 -0.64950449 0.52396597
-0.06307042 -0.64948453 0.52377922
-0.06311761 -0.64946458 0.52359247
-0.06316479 -0.64944462 0.52340571
-0.06321198 -0.64942466 0.52321896
-0.06325916 -0.64940470 0.52303220
-0.06330635 -0.64938475 0.52284545
-0.06335353 -0.64936479 0.52265870
-0.06340072 -0.64934483 0.52247194
-0.06344790 -0.64932487 0.52228519
-0.06349509 -0.64930492 0.52209843
-0.06354227 -0.64928496 0.52191168
-0.06358946 -0.64926500 0.52172492
-0.06363665 -0.64924504 0.52153817
-0.06368383 -0.64922509 0.52135142
-0.06373102 -0.64920513 0.52116466
-0.06377820 -0.64918517 0.52097791
-0.06382539 -0.64916521 0.52079115
-0.06387257 -0.64914526 0.52060440
-0.06391976 -0.64912530 0.52041765
-0.06396694 -0.64910534 0.52023089
-0.06401413 -0.64908538 0.52004414
-0.06406131 -0.64906543 0.51985739
-0.06410850 -0.64904547 0.51967063
-0.06415568 -0.64902551 0.51948388
-0.06420287 -0.64900555 0.51929712
-0.06425006 -0.64898560 0.51911037
-0.06429724 -0.64896564 0.51892361
-0.06434443 -0.64894568 0.51873686
-0.06439161 -0.64892572 0.51855011
-0.06443880 -0.64890577 0.51836335
-0.06448598 -0.64888581 0.51817660
-0.06453317 -0.64886585 0.51798984
-0.06458035 -0.64884589 0.51780309
-0.06462754 -0.64882594 0.51761634
-0.03809544 -0.68368012 0.62381548
-0.03814435 -0.68365943 0.62362188
-0.03819326 -0.68363874 0.62342829
-0.03824218 -0.68361805 0.62323470
-0.03829192 -0.68362979 0.62304053
-0.03834084 -0.68360910 0.62284693
-0.03838975 -0.68358841 0.62265333
-0.03890621 -0.66806244 0.61933875
-0.03895740 -0.66816596 0.61914655
-0.03900521 -0.66814573 0.61895732
-0.03905302 -0.66812551 0.61876809
-0.03910083 -0.66810529 0.61857887
-0.03915291 -0.66823985 0.61838569
-0.03920331 -0.66831251 0.61819402
-0.03925114 -0.66829228 0.61800472
-0.03929121 -0.66799346 0.61782277
-0.03933815 -0.66794230 0.61763437
-0.03938595 -0.66792208 0.61744516
-0.03943463 -0.66793280 0.61725511
-0.03948418 -0.66797445 0.61706419
-0.03953200 -0.66795423 0.61687495
-0.03958069 -0.66796494 0.61668484
-0.03962850 -0.66794472 0.61649560
-0.03968071 -0.66807928 0.61630190
-0.04049561 -0.66779723 0.61308187
-0.04054436 -0.66780798 0.61289151
-0.04059313 -0.66781866 0.61270113
-0.04064281 -0.66786038 0.61250965
-0.04069159 -0.66787106 0.61231924
-0.04074036 -0.66788179 0.61212879
-0.04079007 -0.66792350 0.61193723
-0.04084073 -0.66799612 0.61174453
-0.04088859 -0.66797587 0.61155513
-0.04093645 -0.66795563 0.61136572
-0.04098430 -0.66793539 0.61117631
-0.04103594 -0.66803908 0.61098232
-0.04108571 -0.66808077 0.61079057
-0.04113453 -0.66809149 0.61059995
-0.04118431 -0.66813323 0.61040813
-0.04123314 -0.66814400 0.61021746
-0.04128390 -0.66821670 0.61002440
-0.04133660 -0.66835149 0.60982887
-0.04138835 -0.66845532 0.60963447
-0.04143916 -0.66852811 0.60944121
-0.04148998 -0.66860097 0.60924789
-0.04153692 -0.66854968 0.60905946
-0.04158387 -0.66849833 0.60887106
-0.04162983 -0.66841604 0.60868392
-0.04167774 -0.66839577 0.60849430
-0.04172664 -0.66840652 0.60830340
-0.04177651 -0.66844834 0.60811120
-0.04182641 -0.66849010 0.60791897
-0.04187927 -0.66862507 0.60772279
-0.04193017 -0.66869794 0.60752914
-0.04197911 -0.66870874 0.60733808
-0.04202904 -0.66875060 0.60714567
-0.04207699 -0.66873032 0.60695590
-0.04212493 -0.66871004 0.60676613
-0.04217389 -0.66872082 0.60657500
-0.04222284 -0.66873161 0.60638386
-0.04227080 -0.66871132 0.60619407
-0.04231875 -0.66869104 0.60600428
-0.04236771 -0.66870182 0.60581309
-0.04242074 -0.66883690 0.60561629
-0.04247278 -0.66894098 0.60542079
-0.04252585 -0.66907616 0.60522381
-0.04258100 -0.66927369 0.60502386
-0.04263312 -0.66937786 0.60482812
-0.04303821 -0.67129681 0.60339828
-0.04309268 -0.67146449 0.60319851
-0.04314824 -0.67166356 0.60299709
-0.04319749 -0.67167459 0.60280479
-0.04324463 -0.67162280 0.60261559
-0.04524168 -0.66347930 0.59410573
-0.04529049 -0.66348978 0.59391513
-0.04533701 -0.66343898 0.59372844
-0.04538467 -0.66341882 0.59353979
-0.04543809 -0.66355184 0.59334126
-0.04548922 -0.66362363 0.59314661
-0.04553807 -0.66363410 0.59295590
-0.04558575 -0.66361393 0.59276718
-0.04563343 -0.66359376 0.59257846
-0.04568344 -0.66363492 0.59238568
-0.04573463 -0.66370669 0.59219084
-0.04578233 -0.66368652 0.59200208
-0.04706720 -0.68814475 0.58899180
-0.04712696 -0.68838819 0.58877760
-0.04717649 -0.68836724 0.58858155
-0.04722603 -0.68834628 0.58838551
-0.04727556 -0.68832533 0.58818946
-0.04732509 -0.68830438 0.58799341
-0.04737463 -0.68828343 0.58779736
-0.04742416 -0.68826248 0.58760131
-0.04747369 -0.68824153 0.58740526
-0.04752323 -0.68822058 0.58720922
-0.04757276 -0.68819963 0.58701317
-0.04762229 -0.68817868 0.58681712
-0.04767183 -0.68815773 0.58662107
-0.04772136 -0.68813678 0.58642502
-0.04777090 -0.68811583 0.58622898
-0.04782043 -0.68809488 0.58603293
-0.04786996 -0.68807392 0.58583688
-0.04791950 -0.68805297 0.58564083
-0.04796903 -0.68803202 0.58544478
-0.04801856 -0.68801107 0.58524873
-0.04806810 -0.68799012 0.58505269
-0.04811763 -0.68796917 0.58485664
-0.04816716 -0.68794822 0.58466059
-0.04821670 -0.68792727 0.58446454
-0.04826623 -0.68790632 0.58426849
-0.04831577 -0.68788537 0.58407245
-0.04836530 -0.68786442 0.58387640
-0.04841483 -0.68784347 0.58368035
-0.04846437 -0.68782252 0.58348430
-0.05081574 -0.67068687 0.57283809
-0.05086697 -0.67072923 0.57264069
-0.05091534 -0.67070878 0.57244927
-0.05096226 -0.67065689 0.57226088
-0.05100918 -0.67060506 0.57207249
-0.05105754 -0.67058461 0.57188109
-0.05110734 -0.67059552 0.57168665
-0.05115570 -0.67057507 0.57149524
-0.05120261 -0.67052324 0.57130690
-0.05125097 -0.67050279 0.57111550
-0.05129499 -0.67038806 0.57093336
-0.05292785 -0.65366752 0.56314022
-0.05297503 -0.65364756 0.56295346
-0.05302222 -0.65362760 0.56276671
-0.05306940 -0.65360765 0.56257995
-0.05311659 -0.65358769 0.56239320
-0.05316377 -0.65356773 0.56220644
-0.05322753 -0.65387637 0.56198194
-0.05328230 -0.65400588 0.56177787
-0.05364575 -0.66023599 0.56086922
-0.05370116 -0.66036835 0.56066282
-0.05375196 -0.66040917 0.56046696
-0.05380276 -0.66044999 0.56027107
-0.05385978 -0.66061297 0.56006088
-0.05391218 -0.66068437 0.55986131
-0.05396770 -0.66081692 0.55965450
-0.06019439 -0.65059406 0.53438009
-0.06024158 -0.65057410 0.53419333
-0.06028876 -0.65055414 0.53400658
-0.06033595 -0.65053419 0.53381982
-0.06038313 -0.65051423 0.53363307
-0.06043032 -0.65049427 0.53344632
-0.06047750 -0.65047431 0.53325956
-0.06052469 -0.65045436 0.53307281
-0.06057187 -0.65043440 0.53288606
-0.06061906 -0.65041444 0.53269930
-0.06066625 -0.65039448 0.53251255
-0.06071343 -0.65037453 0.53232579
-0.06076062 -0.65035457 0.53213904
-0.06080780 -0.65033461 0.53195229
-0.06085499 -0.65031465 0.53176553
-0.06090217 -0.65029470 0.53157878
-0.06094936 -0.65027474 0.53139202
-0.06099654 -0.65025478 0.53120527
-0.06104373 -0.65023482 0.53101851
-0.06109091 -0.65021487 0.53083176
-0.06113810 -0.65019491 0.53064501
-0.06118528 -0.65017495 0.53045825
-0.06123247 -0.65015499 0.53027150
-0.06127965 -0.65013504 0.53008474
-0.06132684 -0.65011508 0.52989799
-0.06137403 -0.65009512 0.52971124
-0.06142121 -0.65007516 0.52952448
-0.06146840 -0.65005521 0.52933773
-0.06151558 -0.65003525 0.52915097
-0.06156277 -0.65001529 0.52896422
-0.06160995 -0.64999533 0.52877746
-0.06165714 -0.64997538 0.52859071
-0.06170432 -0.64995542 0.52840396
-0.06175151 -0.64993546 0.52821720
-0.06179869 -0.64991550 0.52803045
-0.06184588 -0.64989555 0.52784370
-0.06189306 -0.64987559 0.52765694
-0.06194025 -0.64985563 0.52747019
-0.06198743 -0.64983567 0.52728343
-0.06203462 -0.64981571 0.52709668
-0.06208181 -0.64979576 0.52690993
-0.06212899 -0.64977580 0.52672317
-0.06217618 -0.64975584 0.52653642
-0.06222336 -0.64973588 0.52634966
-0.06227055 -0.64971593 0.52616291
-0.06231773 -0.64969597 0.52597615
-0.06236492 -0.64967601 0.52578940
-0.06241210 -0.64965605 0.52560265
-0.06245929 -0.64963610 0.52541589
-0.06250647 -0.64961614 0.52522914
-0.06255366 -0.64959618 0.52504238
-0.06260084 -0.64957622 0.52485563
-0.06264803 -0.64955627 0.52466888
-0.06269521 -0.64953631 0.52448212
-0.06274240 -0.64951635 0.52429537
-0.06278959 -0.64949639 0.52410861
-0.06283677 -0.64947644 0.52392186
-0.06288396 -0.64945648 0.52373510
-0.06293114 -0.64943652 0.52354835
-0.06297833 -0.64941656 0.52336160
-0.06302551 -0.64939661 0.52317484
-0.06307270 -0.64937665 0.52298809
-0.06311988 -0.64935669 0.52280134
-0.06316707 -0.64933673 0.52261458
-0.06321425 -0.64931678 0.52242783
-0.06326144 -0.64929682 0.52224107
-0.06330862 -0.64927686 0.52205432
-0.06335581 -0.64925690 0.52186757
-0.06340300 -0.64923695 0.52168081
-0.06345018 -0.64921699 0.52149406
-0.06349737 -0.64919703 0.52130730
-0.06354455 -0.64917707 0.52112055
-0.06359174 -0.64915712 0.52093379
-0.06363892 -0.64913716 0.52074704
-0.06368611 -0.64911720 0.52056029
-0.06373329 -0.64909724 0.52037353
-0.06378048 -0.64907729 0.52018678
-0.06382766 -0.64905733 0.52000002
-0.06387485 -0.64903737 0.51981327
-0.06392203 -0.64901741 0.51962652
-0.06396922 -0.64899746 0.51943976
-0.06401640 -0.64897750 0.51925301
-0.06406359 -0.64895754 0.51906625
-0.06411078 -0.64893758 0.51887950
-0.06415796 -0.64891763 0.51869274
-0.06420515 -0.64889767 0.51850599
-0.06425233 -0.64887771 0.51831924
-0.06429952 -0.64885775 0.51813248
-0.06434670 -0.64883780 0.51794573
-0.06439389 -0.64881784 0.51775898
-0.06444107 -0.64879788 0.51757222
-0.03790133 -0.68361861 0.62377030
-0.03795025 -0.68359792 0.62357671
-0.03799916 -0.68357724 0.62338313
-0.03804807 -0.68355655 0.62318955
-0.03809780 -0.68356828 0.62299538
-0.03814671 -0.68354760 0.62280179
-0.03819563 -0.68352691 0.62260820
-0.03871730 -0.66803402 0.61929406
-0.03876847 -0.66813753 0.61910185
-0.03881628 -0.66811731 0.61891262
-0.03886240 -0.66803520 0.61872494
-0.03891105 -0.66804592 0.61853495
-0.03896140 -0.66811853 0.61834336
-0.03901346 -0.66825313 0.61815010
-0.03906129 -0.66823291 0.61796081
-0.03910143 -0.66793410 0.61777889
-0.03914924 -0.66791388 0.61758968
-0.03919704 -0.66789366 0.61740047
-0.03924571 -0.66790437 0.61721042
-0.03929524 -0.66794603 0.61701949
-0.03934478 -0.66798773 0.61682852
-0.03939347 -0.66799844 0.61663839
-0.03944129 -0.66797822 0.61644913
-0.03949434 -0.66814371 0.61625452
-0.04035534 -0.66777954 0.61284679
-0.04040409 -0.66779022 0.61265641
-0.04045376 -0.66783193 0.61246493
-0.04050253 -0.66784261 0.61227451
-0.04055037 -0.66782238 0.61208515
-0.04059913 -0.66783311 0.61189470
-0.04064791 -0.66784384 0.61170423
-0.04069575 -0.66782361 0.61151485
-0.04074267 -0.66777240 0.61132661
-0.04079145 -0.66778313 0.61113611
-0.04084211 -0.66785573 0.61094330
-0.04089654 -0.66805231 0.61074582
-0.04094629 -0.66809405 0.61055403
-0.04099417 -0.66807380 0.61036454
-0.04104394 -0.66811553 0.61017270
-0.04109752 -0.66828123 0.60997605
-0.04115017 -0.66841607 0.60978049
-0.04120094 -0.66848887 0.60958726
-0.04125078 -0.66853065 0.60939519
-0.04130157 -0.66860349 0.60920186
-0.04134853 -0.66855221 0.60901343
-0.04139548 -0.66850092 0.60882501
-0.04144147 -0.66841856 0.60863787
-0.04148841 -0.66836729 0.60844950
-0.04153632 -0.66834702 0.60825988
-0.04158715 -0.66841985 0.60806640
-0.04163703 -0.66846161 0.60787416
-0.04168789 -0.66853449 0.60768058
-0.04173975 -0.66863837 0.60748564
-0.04178965 -0.66868023 0.60729326
-0.04183858 -0.66869102 0.60710217
-0.04188752 -0.66870181 0.60691107
-0.04193646 -0.66871259 0.60671995
-0.04198540 -0.66872338 0.60652881
-0.04203335 -0.66870310 0.60633903
-0.04208230 -0.66871388 0.60614786
-0.04213026 -0.66869359 0.60595806
-0.04218022 -0.66873543 0.60576548
-0.04223120 -0.66880839 0.60557144
-0.04228219 -0.66888134 0.60537736
-0.04233421 -0.66898540 0.60518180
-0.04239131 -0.66924515 0.60497898
-0.04244339 -0.66934932 0.60478323
-0.04249649 -0.66948477 0.60458593
-0.04255577 -0.66980726 0.60437977
-0.04284788 -0.67126818 0.60335325
-0.04290021 -0.67137314 0.60315652
-0.04295360 -0.67150951 0.60295817
-0.04300599 -0.67161453 0.60276128
-0.04305313 -0.67156280 0.60257209
-0.04309921 -0.67147972 0.60238448
-0.04413807 -0.66904318 0.59810943
-0.04509985 -0.66340022 0.59387446
-0.04514638 -0.66334943 0.59368779
-0.04519403 -0.66332927 0.59349917
-0.04524398 -0.66337032 0.59330659
-0.04529737 -0.66350333 0.59310800
-0.04534964 -0.66360575 0.59291132
-0.04539847 -0.66361621 0.59272060
-0.04544846 -0.66365736 0.59252783
-0.04549846 -0.66369851 0.59233502
-0.04554847 -0.66373965 0.59214219
-0.04560430 -0.66393423 0.59193908
-0.04564155 -0.66363799 0.59176872
-0.04693121 -0.68835873 0.58873129
-0.04698074 -0.68833778 0.58853524
-0.04703028 -0.68831683 0.58833919
-0.04707981 -0.68829588 0.58814315
-0.04712934 -0.68827493 0.58794710
-0.04717888 -0.68825398 0.58775105
-0.04722841 -0.68823303 0.58755500
-0.04727795 -0.68821208 0.58735895
-0.04732748 -0.68819113 0.58716291
-0.04737701 -0.68817018 0.58696686
-0.04742655 -0.68814923 0.58677081
-0.04747608 -0.68812828 0.58657476
-0.04752561 -0.68810733 0.58637871
-0.04757515 -0.68808638 0.58618266
