ply
format ascii 1.0
element vertex 1408
property float x
property float y
property float z
end_header
-0.18885727 0.13433855 0.01365282
-0.18885801 0.13454531 0.01362292
-0.18885874 0.13475211 0.01359296
-0.18885947 0.13495894 0.01356306
-0.18886844 0.13517079 0.01350262
-0.18885269 0.13536776 0.01353366
-0.19007271 0.15646075 0.00633626
-0.19005670 0.15666094 0.00636781
-0.19004068 0.15686113 0.00639936
-0.19002467 0.15706132 0.00643091
-0.19000865 0.15726151 0.00646246
-0.18999264 0.15746170 0.00649401
-0.18997662 0.15766189 0.00652556
-0.18996060 0.15786207 0.00655711
-0.18994459 0.15806226 0.00658866
-0.18992857 0.15826245 0.00662021
-0.18991256 0.15846264 0.00665176
-0.18989654 0.15866283 0.00668331
-0.18988053 0.15886302 0.00671486
-0.18986451 0.15906320 0.00674642
-0.18984849 0.15926339 0.00677797
-0.18983248 0.15946358 0.00680952
-0.18981646 0.15966377 0.00684107
-0.18980045 0.15986396 0.00687262
-0.18978443 0.16006415 0.00690417
-0.18976842 0.16026434 0.00693572
-0.18975240 0.16046452 0.00696727
-0.18938404 0.16506886 0.00769292
-0.18936802 0.16526905 0.00772448
-0.18935201 0.16546923 0.00775603
-0.18933599 0.16566942 0.00778758
-0.18931998 0.16586961 0.00781913
-0.18930396 0.16606980 0.00785068
-0.18928795 0.16626999 0.00788223
-0.18927193 0.16647018 0.00791378
-0.18925591 0.16667037 0.00794533
-0.18923990 0.16687055 0.00797688
-0.18922388 0.16707074 0.00800843
-0.18920787 0.16727093 0.00803998
-0.18919185 0.16747112 0.00807153
-0.18917584 0.16767131 0.00810308
-0.18915982 0.16787150 0.00813463
-0.18914381 0.16807169 0.00816618
-0.18912779 0.16827187 0.00819773
-0.18911177 0.16847206 0.00822928
-0.18909576 0.16867225 0.00826083
-0.18907974 0.16887244 0.00829238
-0.18906373 0.16907263 0.00832393
-0.18904771 0.16927282 0.00835548
-0.18903170 0.16947300 0.00838703
-0.18901568 0.16967319 0.00841858
-0.18899966 0.16987338 0.00845013
-0.18898365 0.17007357 0.00848168
-0.18896763 0.17027376 0.00851323
-0.18895162 0.17047395 0.00854478
-0.18893560 0.17067413 0.00857633
-0.18891959 0.17087432 0.00860788
-0.18890357 0.17107451 0.00863943
-0.18888755 0.17127470 0.00867098
-0.18887154 0.17147489 0.00870253
-0.18885552 0.17167508 0.00873409
-0.18883951 0.17187527 0.00876564
-0.18882349 0.17207545 0.00879719
-0.18880748 0.17227564 0.00882874
-0.18879146 0.17247583 0.00886029
-0.18877544 0.17267602 0.00889184
-0.18875943 0.17287621 0.00892339
-0.18874341 0.17307640 0.00895494
-0.18872740 0.17327658 0.00898649
-0.18871138 0.17347677 0.00901804
-0.18869537 0.17367696 0.00904959
-0.18064165 0.16719325 0.03904955
-0.18062640 0.16738394 0.03907961
-0.18061114 0.16757464 0.03910966
-0.18059588 0.16776534 0.03913971
-0.18058063 0.16795604 0.03916977
-0.18056537 0.16814674 0.03919982
-0.18055012 0.16833743 0.03922988
-0.18053486 0.16852813 0.03925993
-0.18051960 0.16871883 0.03928999
-0.18050435 0.16890953 0.03932004
-0.18001614 0.17501187 0.04028179
-0.18000088 0.17520257 0.04031184
-0.17998563 0.17539326 0.04034190
-0.17997037 0.17558396 0.04037195
-0.17995512 0.17577466 0.04040201
-0.17993986 0.17596536 0.04043206
-0.17992460 0.17615605 0.04046212
-0.17990935 0.17634675 0.04049217
-0.17989409 0.17653745 0.04052223
-0.17987883 0.17672815 0.04055228
-0.17986358 0.17691885 0.04058234
-0.17984832 0.17710955 0.04061239
-0.17983306 0.17730024 0.04064244
-0.17981781 0.17749094 0.04067250
-0.17980255 0.17768164 0.04070255
-0.17978729 0.17787234 0.04073261
-0.17977204 0.17806303 0.04076266
-0.17975678 0.17825373 0.04079272
-0.17974153 0.17844443 0.04082277
-0.17972627 0.17863513 0.04085283
-0.17971101 0.17882583 0.04088288
-0.17969576 0.17901653 0.04091294
-0.17968050 0.17920722 0.04094299
-0.17966524 0.17939792 0.04097305
-0.17964999 0.17958862 0.04100310
-0.17963473 0.17977932 0.04103315
-0.17961947 0.17997001 0.04106321
-0.17946691 0.18187699 0.04136375
-0.17945165 0.18206769 0.04139381
-0.17943640 0.18225839 0.04142386
-0.17942114 0.18244909 0.04145392
-0.17940588 0.18263979 0.04148397
-0.17939063 0.18283049 0.04151403
-0.17937537 0.18302118 0.04154408
-0.17936012 0.18321188 0.04157414
-0.17934486 0.18340258 0.04160419
-0.17932960 0.18359328 0.04163425
-0.17931435 0.18378398 0.04166430
-0.17929909 0.18397467 0.04169436
-0.17928383 0.18416537 0.04172441
-0.17871935 0.19122120 0.04283643
-0.17870409 0.19141190 0.04286648
-0.17868883 0.19160260 0.04289654
-0.17867358 0.19179329 0.04292659
-0.17865832 0.19198399 0.04295665
-0.17864306 0.19217469 0.04298670
-0.17862781 0.19236539 0.04301676
-0.17861255 0.19255608 0.04304681
-0.17859729 0.19274678 0.04307687
-0.17858204 0.19293748 0.04310692
-0.17856678 0.19312818 0.04313698
-0.17855153 0.19331888 0.04316703
-0.17853627 0.19350958 0.04319709
-0.17852101 0.19370027 0.04322714
-0.17850576 0.19389097 0.04325719
-0.19496445 0.09278885 -0.00372290
-0.19494843 0.09298904 -0.00369135
-0.19063325 0.09775062 0.01131280
-0.19063414 0.09795273 0.01128280
-0.19062675 0.09815173 0.01128324
-0.19063594 0.09835707 0.01122283
-0.19062856 0.09855614 0.01122322
-0.19061289 0.09875203 0.01125410
-0.19060550 0.09895111 0.01125455
-0.19063954 0.09916622 0.01110279
-0.19062386 0.09936219 0.01113368
-0.19117149 0.11180250 0.00750440
-0.19115568 0.11200017 0.00753555
-0.19111471 0.11218624 0.00765941
-0.19109890 0.11238388 0.00769056
-0.19108309 0.11258152 0.00772171
-0.19107566 0.11278306 0.00772196
-0.19105984 0.11298071 0.00775311
-0.19106080 0.11318620 0.00772247
-0.19105335 0.11338778 0.00772279
-0.19104592 0.11358940 0.00772305
-0.19103849 0.11379103 0.00772332
-0.18870160 0.11816841 0.01561092
-0.18868596 0.11836391 0.01564173
-0.18872755 0.11858833 0.01546134
-0.19208604 0.12298619 0.00271201
-0.19213822 0.12322145 0.00249186
-0.19217339 0.12344797 0.00233448
-0.19219152 0.12366568 0.00224003
-0.19219259 0.12387451 0.00220850
-0.19217660 0.12407438 0.00224000
-0.19216915 0.12427876 0.00223999
-0.19215315 0.12447864 0.00227150
-0.19214569 0.12468304 0.00227155
-0.19212969 0.12488293 0.00230305
-0.19211370 0.12508282 0.00233456
-0.19210624 0.12528727 0.00233456
-0.19209877 0.12549174 0.00233456
-0.19206573 0.12568250 0.00242907
-0.19008800 0.12730365 0.00937996
-0.19008051 0.12750611 0.00938030
-0.19008971 0.12771785 0.00931895
-0.19007388 0.12791573 0.00935014
-0.18999229 0.13035215 0.00932352
-0.19000149 0.13056448 0.00926209
-0.18999399 0.13076729 0.00926248
-0.18996980 0.13096056 0.00932451
-0.18991225 0.13113459 0.00951003
-0.18988808 0.13132778 0.00957205
-0.18988057 0.13153057 0.00957244
-0.18987307 0.13173339 0.00957277
-0.18985723 0.13193139 0.00960398
-0.18984139 0.13212939 0.00963518
-0.18984222 0.13233710 0.00960472
-0.18983472 0.13253999 0.00960506
-0.18867154 0.13309682 0.01374561
-0.18865579 0.13329360 0.01377663
-0.18866474 0.13350505 0.01371624
-0.18864900 0.13370186 0.01374725
-0.18865793 0.13391338 0.01368694
-0.18865864 0.13412006 0.01365701
-0.18865112 0.13432186 0.01365754
-0.18864360 0.13452366 0.01365813
-0.18864431 0.13473043 0.01362822
-0.18864502 0.13493725 0.01359826
-0.18864573 0.13514410 0.01356836
-0.18863821 0.13534602 0.01356891
-0.18862245 0.13554297 0.01359995
-0.18987146 0.15644878 0.00631010
-0.18985545 0.15664897 0.00634165
-0.18983943 0.15684915 0.00637320
-0.18982342 0.15704934 0.00640475
-0.18980740 0.15724953 0.00643630
-0.18979139 0.15744972 0.00646785
-0.18977537 0.15764991 0.00649940
-0.18975935 0.15785010 0.00653095
-0.18974334 0.15805028 0.00656250
-0.18972732 0.15825047 0.00659405
-0.18971131 0.15845066 0.00662560
-0.18969529 0.15865085 0.00665715
-0.18967928 0.15885104 0.00668870
-0.18966326 0.15905123 0.00672025
-0.18964724 0.15925142 0.00675180
-0.18963123 0.15945160 0.00678335
-0.18961521 0.15965179 0.00681491
-0.18959920 0.15985198 0.00684646
-0.18958318 0.16005217 0.00687801
-0.18956717 0.16025236 0.00690956
-0.18955115 0.16045255 0.00694111
-0.18916677 0.16525707 0.00769831
-0.18915076 0.16545726 0.00772986
-0.18913474 0.16565745 0.00776141
-0.18911873 0.16585764 0.00779297
-0.18910271 0.16605782 0.00782452
-0.18908670 0.16625801 0.00785607
-0.18907068 0.16645820 0.00788762
-0.18905466 0.16665839 0.00791917
-0.18903865 0.16685858 0.00795072
-0.18902263 0.16705876 0.00798227
-0.18900662 0.16725895 0.00801382
-0.18899060 0.16745914 0.00804537
-0.18897459 0.16765933 0.00807692
-0.18895857 0.16785952 0.00810847
-0.18894256 0.16805971 0.00814002
-0.18892654 0.16825990 0.00817157
-0.18891052 0.16846008 0.00820312
-0.18889451 0.16866027 0.00823467
-0.18887849 0.16886046 0.00826622
-0.18886248 0.16906065 0.00829777
-0.18884646 0.16926084 0.00832932
-0.18883045 0.16946103 0.00836087
-0.18881443 0.16966122 0.00839242
-0.18879841 0.16986140 0.00842397
-0.18878240 0.17006159 0.00845552
-0.18876638 0.17026178 0.00848707
-0.18875037 0.17046197 0.00851862
-0.18873435 0.17066216 0.00855017
-0.18871834 0.17086235 0.00858172
-0.18870232 0.17106253 0.00861327
-0.18868630 0.17126272 0.00864482
-0.18867029 0.17146291 0.00867637
-0.18865427 0.17166310 0.00870792
-0.18863826 0.17186329 0.00873947
-0.18862224 0.17206348 0.00877102
-0.18860623 0.17226366 0.00880258
-0.18859021 0.17246385 0.00883413
-0.18857419 0.17266404 0.00886568
-0.18855818 0.17286423 0.00889723
-0.18854216 0.17306442 0.00892878
-0.18852615 0.17326461 0.00896033
-0.18851013 0.17346480 0.00899188
-0.18849412 0.17366498 0.00902343
-0.18044995 0.16718184 0.03902463
-0.18043470 0.16737253 0.03905469
-0.18041944 0.16756323 0.03908474
-0.18040419 0.16775393 0.03911479
-0.18038893 0.16794463 0.03914485
-0.18037367 0.16813533 0.03917490
-0.18035842 0.16832602 0.03920496
-0.18034316 0.16851672 0.03923501
-0.18032790 0.16870742 0.03926507
-0.17983970 0.17480976 0.04022681
-0.17982444 0.17500046 0.04025687
-0.17980919 0.17519116 0.04028692
-0.17979393 0.17538185 0.04031698
-0.17977867 0.17557255 0.04034703
-0.17976342 0.17576325 0.04037709
-0.17974816 0.17595395 0.04040714
-0.17973290 0.17614464 0.04043720
-0.17971765 0.17633534 0.04046725
-0.17970239 0.17652604 0.04049731
-0.17968713 0.17671674 0.04052736
-0.17967188 0.17690744 0.04055742
-0.17965662 0.17709814 0.04058747
-0.17964137 0.17728883 0.04061752
-0.17962611 0.17747953 0.04064758
-0.17961085 0.17767023 0.04067763
-0.17959560 0.17786093 0.04070769
-0.17958034 0.17805162 0.04073774
-0.17956508 0.17824232 0.04076780
-0.17954983 0.17843302 0.04079785
-0.17953457 0.17862372 0.04082791
-0.17951931 0.17881442 0.04085796
-0.17950406 0.17900512 0.04088802
-0.17948880 0.17919581 0.04091807
-0.17947354 0.17938651 0.04094813
-0.17945829 0.17957721 0.04097818
-0.17944303 0.17976791 0.04100823
-0.17925995 0.18205628 0.04136889
-0.17924470 0.18224698 0.04139894
-0.17922944 0.18243768 0.04142900
-0.17921419 0.18262838 0.04145905
-0.17919893 0.18281908 0.04148911
-0.17918367 0.18300978 0.04151916
-0.17916842 0.18320047 0.04154922
-0.17915316 0.18339117 0.04157927
-0.17913790 0.18358187 0.04160933
-0.17912265 0.18377257 0.04163938
-0.17910739 0.18396326 0.04166944
-0.17909213 0.18415396 0.04169949
-0.17907688 0.18434466 0.04172955
-0.17852765 0.19120979 0.04281151
-0.17851239 0.19140049 0.04284157
-0.17849713 0.19159119 0.04287162
-0.17848188 0.19178188 0.04290167
-0.17846662 0.19197258 0.04293173
-0.17845136 0.19216328 0.04296178
-0.17843611 0.19235398 0.04299184
-0.17842085 0.19254468 0.04302189
-0.17840560 0.19273538 0.04305195
-0.17839034 0.19292607 0.04308200
-0.17837508 0.19311677 0.04311206
-0.17835983 0.19330747 0.04314211
-0.17834457 0.19349817 0.04317217
-0.17832931 0.19368886 0.04320222
-0.17831406 0.19387956 0.04323228
-0.17829880 0.19407026 0.04326233
-0.19042072 0.09793473 0.01131807
-0.19042986 0.09814001 0.01125765
-0.19100535 0.11160067 0.00738565
-0.19098953 0.11179836 0.00741681
-0.19096534 0.11199219 0.00747887
-0.19093278 0.11218215 0.00757178
-0.19090021 0.11237205 0.00766474
-0.19089277 0.11257358 0.00766498
-0.19087696 0.11277123 0.00769613
-0.19086952 0.11297279 0.00769638
-0.19087045 0.11317828 0.00766580
-0.19086301 0.11337988 0.00766606
-0.19086394 0.11358544 0.00763543
-0.19086486 0.11379104 0.00760480
-0.19084905 0.11398877 0.00763597
-0.18846494 0.11833985 0.01570666
-0.18849011 0.11855597 0.01558668
-0.19188532 0.12297424 0.00268592
-0.19198000 0.12323176 0.00230834
-0.19199809 0.12344941 0.00221388
-0.19199061 0.12365372 0.00221391
-0.19199167 0.12386255 0.00218238
-0.19198420 0.12406692 0.00218237
-0.19197672 0.12427129 0.00218242
-0.19196073 0.12447119 0.00221392
-0.19195326 0.12467561 0.00221392
-0.19194579 0.12488004 0.00221392
-0.19194683 0.12508905 0.00218242
-0.19193084 0.12528898 0.00221393
-0.19191484 0.12548891 0.00224544
-0.19188182 0.12567969 0.00233995
-0.19184879 0.12587043 0.00243445
-0.18987328 0.12748965 0.00938529
-0.18987411 0.12769675 0.00935478
-0.18985828 0.12789462 0.00938596
-0.18976156 0.13073632 0.00936005
-0.18972906 0.13092476 0.00945296
-0.18968823 0.13110836 0.00957667
-0.18967240 0.13130632 0.00960787
-0.18965656 0.13150428 0.00963907
-0.18965738 0.13171190 0.00960858
-0.18964154 0.13190987 0.00963979
-0.18964235 0.13211754 0.00960931
-0.18963483 0.13232039 0.00960971
-0.18961899 0.13251840 0.00964091
-0.18847371 0.13308504 0.01371989
-0.18845796 0.13328183 0.01375091
-0.18844222 0.13347862 0.01378192
-0.18845114 0.13369009 0.01372153
-0.18846004 0.13390161 0.01366121
-0.18845252 0.13410337 0.01366173
-0.18844499 0.13430515 0.01366231
-0.18843746 0.13450695 0.01366284
-0.18843815 0.13471371 0.01363293
-0.18843884 0.13492051 0.01360302
-0.18843952 0.13512735 0.01357312
-0.18843200 0.13532926 0.01357367
-0.18842446 0.13553118 0.01357421
-0.18839226 0.13571814 0.01366623
-0.18837650 0.13591507 0.01369727
-0.18967022 0.15643680 0.00628394
-0.18965421 0.15663699 0.00631549
-0.18963819 0.15683718 0.00634704
-0.18962217 0.15703737 0.00637859
-0.18960616 0.15723755 0.00641014
-0.18959014 0.15743774 0.00644169
-0.18957413 0.15763793 0.00647324
-0.18955811 0.15783812 0.00650479
-0.18954210 0.15803831 0.00653634
-0.18952608 0.15823850 0.00656789
-0.18951006 0.15843869 0.00659944
-0.18949405 0.15863887 0.00663099
-0.18947803 0.15883906 0.00666254
-0.18946202 0.15903925 0.00669409
-0.18944600 0.15923944 0.00672564
-0.18942999 0.15943963 0.00675719
-0.18941397 0.15963982 0.00678874
-0.18939795 0.15984000 0.00682030
-0.18938194 0.16004019 0.00685185
-0.18936592 0.16024038 0.00688340
-0.18934991 0.16044057 0.00691495
-0.18894952 0.16544528 0.00770370
-0.18893350 0.16564547 0.00773525
-0.18891748 0.16584566 0.00776680
-0.18890147 0.16604585 0.00779836
-0.18888545 0.16624603 0.00782991
-0.18886944 0.16644622 0.00786146
-0.18885342 0.16664641 0.00789301
-0.18883741 0.16684660 0.00792456
-0.18882139 0.16704679 0.00795611
-0.18880538 0.16724698 0.00798766
-0.18878936 0.16744717 0.00801921
-0.18877334 0.16764735 0.00805076
-0.18874131 0.16804773 0.00811386
-0.18872530 0.16824792 0.00814541
-0.18870928 0.16844811 0.00817696
-0.18869327 0.16864830 0.00820851
-0.18867725 0.16884848 0.00824006
-0.18866123 0.16904867 0.00827161
-0.18864522 0.16924886 0.00830316
-0.18862920 0.16944905 0.00833471
-0.18861319 0.16964924 0.00836626
-0.18859717 0.16984943 0.00839781
-0.18858116 0.17004961 0.00842936
-0.18856514 0.17024980 0.00846091
-0.18854912 0.17044999 0.00849246
-0.18853311 0.17065018 0.00852401
-0.18848506 0.17125075 0.00861866
-0.18846905 0.17145093 0.00865021
-0.18845303 0.17165112 0.00868176
-0.18843701 0.17185131 0.00871331
-0.18842100 0.17205150 0.00874486
-0.18840498 0.17225169 0.00877641
-0.18838897 0.17245188 0.00880797
-0.18837295 0.17265207 0.00883952
-0.18835694 0.17285225 0.00887107
-0.18834092 0.17305244 0.00890262
-0.18832490 0.17325263 0.00893417
-0.18830889 0.17345282 0.00896572
-0.18829287 0.17365301 0.00899727
-0.18025825 0.16717043 0.03899971
-0.18024299 0.16736112 0.03902977
-0.18022774 0.16755182 0.03905982
-0.18021248 0.16774252 0.03908987
-0.18019722 0.16793322 0.03911993
-0.18018197 0.16812392 0.03914998
-0.18016671 0.16831461 0.03918004
-0.18015145 0.16850531 0.03921009
-0.17963274 0.17498905 0.04023195
-0.17961748 0.17517975 0.04026200
-0.17960222 0.17537044 0.04029206
-0.17958697 0.17556114 0.04032211
-0.17957171 0.17575184 0.04035217
-0.17955645 0.17594254 0.04038222
-0.17954120 0.17613323 0.04041228
-0.17952594 0.17632393 0.04044233
-0.17951068 0.17651463 0.04047239
-0.17949543 0.17670533 0.04050244
-0.17948017 0.17689603 0.04053250
-0.17946492 0.17708673 0.04056255
-0.17944966 0.17727742 0.04059260
-0.17943440 0.17746812 0.04062266
-0.17941915 0.17765882 0.04065271
-0.17940389 0.17784952 0.04068277
-0.17938863 0.17804021 0.04071282
-0.17937338 0.17823091 0.04074288
-0.17935812 0.17842161 0.04077293
-0.17934286 0.17861231 0.04080299
-0.17932761 0.17880301 0.04083304
-0.17931235 0.17899371 0.04086310
-0.17929709 0.17918440 0.04089315
-0.17928184 0.17937510 0.04092321
-0.17926658 0.17956580 0.04095326
-0.17925133 0.17975650 0.04098331
-0.17905299 0.18223557 0.04137402
-0.17903774 0.18242627 0.04140408
-0.17902248 0.18261697 0.04143413
-0.17900722 0.18280767 0.04146419
-0.17899197 0.18299837 0.04149424
-0.17897671 0.18318906 0.04152430
-0.17896145 0.18337976 0.04155435
-0.17894620 0.18357046 0.04158441
-0.17893094 0.18376116 0.04161446
-0.17891568 0.18395185 0.04164452
-0.17890043 0.18414255 0.04167457
-0.17888517 0.18433325 0.04170462
-0.17833594 0.19119838 0.04278659
-0.17832068 0.19138908 0.04281664
-0.17830543 0.19157978 0.04284670
-0.17829017 0.19177047 0.04287675
-0.17827492 0.19196117 0.04290681
-0.17825966 0.19215187 0.04293686
-0.17824440 0.19234257 0.04296692
-0.17822915 0.19253327 0.04299697
-0.17821389 0.19272397 0.04302703
-0.17819863 0.19291466 0.04305708
-0.17818338 0.19310536 0.04308714
-0.17816812 0.19329606 0.04311719
-0.17815286 0.19348676 0.04314725
-0.17813761 0.19367745 0.04317730
-0.17812235 0.19386815 0.04320735
-0.17810709 0.19405885 0.04323741
-0.17809184 0.19424955 0.04326746
-0.19022386 0.09792301 0.01129248
-0.19020819 0.09811884 0.01132334
-0.19080662 0.11158884 0.00735982
-0.19079080 0.11178654 0.00739097
-0.19075825 0.11197652 0.00748389
-0.19072571 0.11216646 0.00757685
-0.19070989 0.11236411 0.00760800
-0.19069408 0.11256176 0.00763915
-0.19068663 0.11276330 0.00763940
-0.19067918 0.11296487 0.00763966
-0.19068009 0.11317036 0.00760907
-0.19066427 0.11336805 0.00764023
-0.19066518 0.11357361 0.00760959
-0.19067446 0.11378315 0.00754807
-0.19065864 0.11398089 0.00757924
-0.19074325 0.11422623 0.00723937
-0.18836362 0.11756260 0.01543722
-0.18834797 0.11775811 0.01546804
-0.18830787 0.11794132 0.01558934
-0.18830854 0.11814502 0.01555982
-0.18830921 0.11834875 0.01553032
-0.18830988 0.11855253 0.01550076
-0.18831872 0.11876049 0.01544105
-0.18838470 0.11899759 0.01516992
-0.18837722 0.11919741 0.01517054
-0.19177914 0.12321980 0.00228223
-0.19179719 0.12343745 0.00218776
-0.19179822 0.12364624 0.00215628
-0.19179074 0.12385059 0.00215626
-0.19179177 0.12405944 0.00212480
-0.19177577 0.12425933 0.00215630
-0.19177681 0.12446826 0.00212478
-0.19176932 0.12467270 0.00212478
-0.19176184 0.12487715 0.00212478
-0.19175436 0.12508164 0.00212473
-0.19173836 0.12528158 0.00215624
-0.19171386 0.12547695 0.00221931
-0.19168085 0.12566773 0.00231382
-0.19164784 0.12585847 0.00240833
-0.18966688 0.12768029 0.00935977
-0.18964273 0.12787351 0.00942179
-0.18945438 0.13066241 0.00973504
-0.18948843 0.13088899 0.00958130
-0.18947260 0.13108693 0.00961250
-0.18945676 0.13128487 0.00964369
-0.18944092 0.13148281 0.00967489
-0.18943340 0.13168558 0.00967521
-0.18942588 0.13188836 0.00967560
-0.18941835 0.13209116 0.00967599
-0.18940252 0.13228913 0.00970719
-0.18827589 0.13307327 0.01369418
-0.18826014 0.13327006 0.01372519
-0.18826903 0.13348150 0.01366480
-0.18826149 0.13368320 0.01366537
-0.18827038 0.13389474 0.01360498
-0.18826284 0.13409650 0.01360556
-0.18825530 0.13429830 0.01360608
-0.18823955 0.13449517 0.01363711
-0.18824022 0.13470193 0.01360720
-0.18824089 0.13490873 0.01357729
-0.18824156 0.13511557 0.01354739
-0.18824223 0.13532245 0.01351743
-0.18822647 0.13551940 0.01354847
-0.18820250 0.13571136 0.01361001
-0.18817854 0.13590329 0.01367154
-0.18816278 0.13610022 0.01370257
-0.18816345 0.13630720 0.01367263
-0.18948499 0.15622463 0.00622623
-0.18946898 0.15642482 0.00625778
-0.18945296 0.15662501 0.00628933
-0.18943695 0.15682520 0.00632088
-0.18942093 0.15702539 0.00635243
-0.18940492 0.15722558 0.00638398
-0.18938890 0.15742576 0.00641553
-0.18937288 0.15762595 0.00644708
-0.18935687 0.15782614 0.00647863
-0.18934085 0.15802633 0.00651018
-0.18932484 0.15822652 0.00654173
-0.18930882 0.15842671 0.00657328
-0.18929281 0.15862690 0.00660483
-0.18927679 0.15882708 0.00663638
-0.18926077 0.15902727 0.00666793
-0.18924476 0.15922746 0.00669948
-0.18922874 0.15942765 0.00673103
-0.18921273 0.15962784 0.00676258
-0.18919671 0.15982803 0.00679414
-0.18918070 0.16002821 0.00682569
-0.18916468 0.16022840 0.00685724
-0.18914867 0.16042859 0.00688879
-0.18873226 0.16563349 0.00770909
-0.18871624 0.16583368 0.00774064
-0.18870023 0.16603387 0.00777220
-0.18868421 0.16623406 0.00780375
-0.18866819 0.16643425 0.00783530
-0.18865218 0.16663443 0.00786685
-0.18863616 0.16683462 0.00789840
-0.18862015 0.16703481 0.00792995
-0.18860413 0.16723500 0.00796150
-0.18858812 0.16743519 0.00799305
-0.18847601 0.16883651 0.00821390
-0.18845999 0.16903670 0.00824545
-0.18844398 0.16923688 0.00827700
-0.18842796 0.16943707 0.00830855
-0.18841194 0.16963726 0.00834010
-0.18839593 0.16983745 0.00837165
-0.18837991 0.17003764 0.00840320
-0.18836390 0.17023783 0.00843475
-0.18834788 0.17043801 0.00846630
-0.18833187 0.17063820 0.00849785
-0.18828382 0.17123877 0.00859250
-0.18826780 0.17143896 0.00862405
-0.18825179 0.17163915 0.00865560
-0.18823577 0.17183933 0.00868715
-0.18821976 0.17203952 0.00871870
-0.18820374 0.17223971 0.00875025
-0.18818772 0.17243990 0.00878181
-0.18817171 0.17264009 0.00881336
-0.18815569 0.17284028 0.00884491
-0.18813968 0.17304046 0.00887646
-0.18812366 0.17324065 0.00890801
-0.18810765 0.17344084 0.00893956
-0.18809163 0.17364103 0.00897111
-0.18006654 0.16715902 0.03897479
-0.18005129 0.16734972 0.03900484
-0.18003603 0.16754041 0.03903490
-0.18002077 0.16773111 0.03906495
-0.18000552 0.16792181 0.03909501
-0.17999026 0.16811251 0.03912506
-0.17997500 0.16830321 0.03915512
-0.17944103 0.17497764 0.04020703
-0.17942577 0.17516834 0.04023708
-0.17941052 0.17535903 0.04026714
-0.17939526 0.17554973 0.04029719
-0.17938000 0.17574043 0.04032725
-0.17936475 0.17593113 0.04035730
-0.17934949 0.17612183 0.04038736
-0.17933423 0.17631252 0.04041741
-0.17931898 0.17650322 0.04044747
-0.17930372 0.17669392 0.04047752
-0.17928847 0.17688462 0.04050757
-0.17927321 0.17707532 0.04053763
-0.17925795 0.17726601 0.04056768
-0.17924270 0.17745671 0.04059774
-0.17922744 0.17764741 0.04062779
-0.17921218 0.17783811 0.04065785
-0.17919693 0.17802881 0.04068790
-0.17918167 0.17821950 0.04071796
-0.17916641 0.17841020 0.04074801
-0.17915116 0.17860090 0.04077807
-0.17913590 0.17879160 0.04080812
-0.17912065 0.17898230 0.04083818
-0.17910539 0.17917299 0.04086823
-0.17909013 0.17936369 0.04089828
-0.17907488 0.17955439 0.04092834
-0.17905962 0.17974509 0.04095839
-0.17887654 0.18203346 0.04131905
-0.17886129 0.18222416 0.04134910
-0.17884603 0.18241486 0.04137916
-0.17883077 0.18260556 0.04140921
-0.17881552 0.18279626 0.04143927
-0.17880026 0.18298696 0.04146932
-0.17878500 0.18317765 0.04149938
-0.17876975 0.18336835 0.04152943
-0.17875449 0.18355905 0.04155949
-0.17873923 0.18374975 0.04158954
-0.17872398 0.18394044 0.04161960
-0.17870872 0.18413114 0.04164965
-0.17869347 0.18432184 0.04167970
-0.17867821 0.18451254 0.04170976
-0.17814423 0.19118697 0.04276167
-0.17812898 0.19137767 0.04279172
-0.17811372 0.19156837 0.04282178
-0.17809847 0.19175906 0.04285183
-0.17808321 0.19194976 0.04288189
-0.17806795 0.19214046 0.04291194
-0.17805270 0.19233116 0.04294200
-0.17803744 0.19252186 0.04297205
-0.17802218 0.19271256 0.04300211
-0.17800693 0.19290325 0.04303216
-0.17799167 0.19309395 0.04306222
-0.17797641 0.19328465 0.04309227
-0.17796116 0.19347535 0.04312233
-0.17794590 0.19366604 0.04315238
-0.17793064 0.19385674 0.04318243
-0.17791539 0.19404744 0.04321249
-0.17790013 0.19423814 0.04324254
-0.17788488 0.19442884 0.04327260
-0.19003609 0.09811658 0.01120646
-0.19050284 0.11234840 0.00761308
-0.19049538 0.11254993 0.00761332
-0.19048792 0.11275148 0.00761357
-0.19047211 0.11294914 0.00764472
-0.19048135 0.11315854 0.00758324
-0.19046554 0.11335622 0.00761439
-0.19046643 0.11356178 0.00758376
-0.19047568 0.11377132 0.00752223
-0.19056854 0.11402050 0.00715138
-0.19057782 0.11423027 0.00708971
-0.18818338 0.11755907 0.01535134
-0.18817589 0.11775869 0.01535194
-0.18815209 0.11795012 0.01541297
-0.18811201 0.11813332 0.01553428
-0.18810451 0.11833294 0.01553493
-0.18811332 0.11854084 0.01547520
-0.18812212 0.11874879 0.01541549
-0.18818802 0.11898588 0.01514435
-0.18818052 0.11918570 0.01514498
-0.18811594 0.11935634 0.01535702
-0.19159629 0.12342550 0.00216164
-0.19159730 0.12363428 0.00213016
-0.19158981 0.12383863 0.00213014
-0.19159082 0.12404748 0.00209867
-0.19159183 0.12425639 0.00206715
-0.19159285 0.12446533 0.00203563
-0.19162789 0.12469242 0.00187797
-0.19161189 0.12489241 0.00190949
-0.19159589 0.12509241 0.00194101
-0.19157138 0.12528784 0.00200403
-0.19152138 0.12546956 0.00216162
-0.18923133 0.13084368 0.00977119
-0.18922380 0.13104634 0.00977155
-0.18920796 0.13124422 0.00980274
-0.18918384 0.13143729 0.00986474
-0.18920950 0.13165927 0.00974185
-0.18919367 0.13185719 0.00977304
-0.18917784 0.13205511 0.00980424
-0.18809380 0.13286471 0.01363745
-0.18814368 0.13310040 0.01342470
-0.18807052 0.13326315 0.01366902
-0.18807118 0.13346972 0.01363908
-0.18809643 0.13369100 0.01351778
-0.18808068 0.13388786 0.01354881
-0.18806493 0.13408473 0.01357983
-0.18804918 0.13428159 0.01361086
-0.18804164 0.13448339 0.01361139
-0.18804228 0.13469015 0.01358147
-0.18803473 0.13489199 0.01358206
-0.18804359 0.13510378 0.01352165
-0.18803603 0.13530569 0.01352219
-0.18802028 0.13550263 0.01355323
-0.18799632 0.13569458 0.01361476
-0.18798057 0.13589151 0.01364580
-0.18797301 0.13609345 0.01364635
-0.18796546 0.13629542 0.01364690
-0.18796610 0.13650244 0.01361696
-0.18929977 0.15601247 0.00616852
-0.18928375 0.15621266 0.00620007
-0.18926774 0.15641285 0.00623162
-0.18925172 0.15661303 0.00626317
-0.18923570 0.15681322 0.00629472
-0.18921969 0.15701341 0.00632627
-0.18920367 0.15721360 0.00635782
-0.18918766 0.15741379 0.00638937
-0.18917164 0.15761398 0.00642092
-0.18915563 0.15781417 0.00645247
-0.18913961 0.15801435 0.00648402
-0.18912359 0.15821454 0.00651557
-0.18910758 0.15841473 0.00654712
-0.18909156 0.15861492 0.00657867
-0.18907555 0.15881511 0.00661022
-0.18905953 0.15901530 0.00664177
-0.18904352 0.15921548 0.00667332
-0.18902750 0.15941567 0.00670487
-0.18901149 0.15961586 0.00673642
-0.18899547 0.15981605 0.00676798
-0.18897945 0.16001624 0.00679953
-0.18896344 0.16021643 0.00683108
-0.18894742 0.16041662 0.00686263
-0.18853101 0.16562152 0.00768293
-0.18851500 0.16582170 0.00771448
-0.18849898 0.16602189 0.00774603
-0.18848297 0.16622208 0.00777759
-0.18846695 0.16642227 0.00780914
-0.18845094 0.16662246 0.00784069
-0.18843492 0.16682265 0.00787224
-0.18841891 0.16702283 0.00790379
-0.18840289 0.16722302 0.00793534
-0.18827476 0.16882453 0.00818774
-0.18825875 0.16902472 0.00821929
-0.18824273 0.16922491 0.00825084
-0.18822672 0.16942510 0.00828239
-0.18821070 0.16962528 0.00831394
-0.18819469 0.16982547 0.00834549
-0.18817867 0.17002566 0.00837704
-0.18816265 0.17022585 0.00840859
-0.18814664 0.17042604 0.00844014
-0.18813062 0.17062623 0.00847169
-0.18808258 0.17122679 0.00856634
-0.18806656 0.17142698 0.00859789
-0.18805054 0.17162717 0.00862944
-0.18803453 0.17182736 0.00866099
-0.18801851 0.17202754 0.00869254
-0.18800250 0.17222773 0.00872409
-0.18798648 0.17242792 0.00875565
-0.18797047 0.17262811 0.00878720
-0.18795445 0.17282830 0.00881875
-0.18793843 0.17302849 0.00885030
-0.18792242 0.17322868 0.00888185
-0.18790640 0.17342886 0.00891340
-0.18789039 0.17362905 0.00894495
-0.17987484 0.16714761 0.03894987
-0.17985958 0.16733831 0.03897992
-0.17984432 0.16752900 0.03900998
-0.17982907 0.16771970 0.03904003
-0.17981381 0.16791040 0.03907009
-0.17979855 0.16810110 0.03910014
-0.17924932 0.17496623 0.04018211
-0.17923407 0.17515693 0.04021216
-0.17921881 0.17534762 0.04024222
-0.17920355 0.17553832 0.04027227
-0.17918830 0.17572902 0.04030233
-0.17917304 0.17591972 0.04033238
-0.17915779 0.17611042 0.04036244
-0.17914253 0.17630112 0.04039249
-0.17912727 0.17649181 0.04042255
-0.17911202 0.17668251 0.04045260
-0.17909676 0.17687321 0.04048265
-0.17908150 0.17706391 0.04051271
-0.17906625 0.17725460 0.04054276
-0.17905099 0.17744530 0.04057282
-0.17903573 0.17763600 0.04060287
-0.17902048 0.17782670 0.04063293
-0.17900522 0.17801740 0.04066298
-0.17898996 0.17820810 0.04069304
-0.17897471 0.17839879 0.04072309
-0.17895945 0.17858949 0.04075315
-0.17894420 0.17878019 0.04078320
-0.17892894 0.17897089 0.04081326
-0.17891368 0.17916158 0.04084331
-0.17889843 0.17935228 0.04087336
-0.17888317 0.17954298 0.04090342
-0.17886791 0.17973368 0.04093347
-0.17885266 0.17992438 0.04096353
-0.17868484 0.18202206 0.04129413
-0.17866958 0.18221275 0.04132418
-0.17865432 0.18240345 0.04135424
-0.17863907 0.18259415 0.04138429
-0.17862381 0.18278485 0.04141435
-0.17860855 0.18297555 0.04144440
-0.17859330 0.18316624 0.04147446
-0.17857804 0.18335694 0.04150451
-0.17856279 0.18354764 0.04153457
-0.17854753 0.18373834 0.04156462
-0.17853227 0.18392904 0.04159467
-0.17851702 0.18411974 0.04162473
-0.17850176 0.18431043 0.04165478
-0.17848650 0.18450113 0.04168484
-0.17847125 0.18469183 0.04171489
-0.17795253 0.19117556 0.04273675
-0.17793727 0.19136626 0.04276680
-0.17792202 0.19155696 0.04279686
-0.17790676 0.19174766 0.04282691
-0.17789150 0.19193835 0.04285697
-0.17787625 0.19212905 0.04288702
-0.17786099 0.19231975 0.04291708
-0.17784573 0.19251045 0.04294713
-0.17783048 0.19270115 0.04297719
-0.17781522 0.19289184 0.04300724
-0.17779996 0.19308254 0.04303730
-0.17778471 0.19327324 0.04306735
-0.17776945 0.19346394 0.04309740
-0.17775420 0.19365464 0.04312746
-0.17773894 0.19384533 0.04315751
-0.17772368 0.19403603 0.04318757
-0.17770843 0.19422673 0.04321762
-0.17769317 0.19441743 0.04324768
-0.17767791 0.19460813 0.04327773
-0.19027167 0.11252646 0.00768015
-0.19028088 0.11273576 0.00761865
-0.19027341 0.11293732 0.00761890
-0.19027427 0.11314279 0.00758830
-0.19026680 0.11334440 0.00758856
-0.19025934 0.11354602 0.00758882
-0.19026021 0.11375161 0.00755818
-0.19025273 0.11395328 0.00755845
-0.19035381 0.11420652 0.00715670
-0.18795427 0.11753105 0.01544646
-0.18797932 0.11774700 0.01532638
-0.18791485 0.11791793 0.01553825
-0.18789921 0.11811341 0.01556905
-0.18788357 0.11830888 0.01559986
-0.18789234 0.11851675 0.01554019
-0.18790111 0.11872467 0.01548047
-0.18790988 0.11893265 0.01542076
-0.18790237 0.11913237 0.01542142
-0.18788672 0.11932795 0.01545225
-0.19139639 0.12362232 0.00210404
-0.19138888 0.12382667 0.00210403
-0.19138987 0.12403552 0.00207255
-0.19140785 0.12425343 0.00197800
-0.19143434 0.12447595 0.00185183
-0.19143534 0.12468498 0.00182032
-0.19141933 0.12488498 0.00185184
-0.19140333 0.12508498 0.00188336
-0.19137884 0.12528043 0.00194639
-0.18900754 0.13081749 0.00983780
-0.18899171 0.13101534 0.00986898
-0.18897588 0.13121318 0.00990016
-0.18794578 0.13308863 0.01339898
-0.18787268 0.13325138 0.01364331
-0.18787332 0.13345795 0.01361336
-0.18786576 0.13365965 0.01361392
-0.18788278 0.13387608 0.01352308
-0.18785884 0.13406804 0.01358456
-0.18784309 0.13426489 0.01361558
-0.18783553 0.13446668 0.01361616
-0.18783616 0.13467342 0.01358624
-0.18783680 0.13488021 0.01355633
-0.18784561 0.13509200 0.01349592
-0.18783806 0.13529391 0.01349646
-0.18782230 0.13549085 0.01352750
-0.18779835 0.13568280 0.01358903
-0.18778259 0.13587973 0.01362007
-0.18776684 0.13607666 0.01365110
-0.18775928 0.13627861 0.01365165
-0.18775990 0.13648562 0.01362171
-0.18909852 0.15600049 0.00614236
-0.18908250 0.15620068 0.00617391
-0.18906649 0.15640087 0.00620546
-0.18905047 0.15660106 0.00623701
-0.18903445 0.15680125 0.00626856
-0.18901844 0.15700143 0.00630011
-0.18900242 0.15720162 0.00633166
-0.18898641 0.15740181 0.00636321
-0.18897039 0.15760200 0.00639476
-0.18895438 0.15780219 0.00642631
-0.18893836 0.15800238 0.00645786
-0.18892234 0.15820256 0.00648941
-0.18890633 0.15840275 0.00652096
-0.18889031 0.15860294 0.00655251
-0.18887430 0.15880313 0.00658406
-0.18885828 0.15900332 0.00661561
-0.18884227 0.15920351 0.00664716
-0.18882625 0.15940370 0.00667871
-0.18881023 0.15960388 0.00671026
-0.18879422 0.15980407 0.00674181
-0.18877820 0.16000426 0.00677336
-0.18876219 0.16020445 0.00680491
-0.18842586 0.16440841 0.00746747
-0.18840984 0.16460860 0.00749902
-0.18829773 0.16600991 0.00771987
-0.18828172 0.16621010 0.00775142
-0.18826570 0.16641029 0.00778297
-0.18824969 0.16661048 0.00781452
-0.18823367 0.16681067 0.00784608
-0.18821766 0.16701086 0.00787763
-0.18820164 0.16721104 0.00790918
-0.18805750 0.16901274 0.00819313
-0.18804148 0.16921293 0.00822468
-0.18802547 0.16941312 0.00825623
-0.18800945 0.16961331 0.00828778
-0.18799344 0.16981349 0.00831933
-0.18797742 0.17001368 0.00835088
-0.18796140 0.17021387 0.00838243
-0.18794539 0.17041406 0.00841398
-0.18792937 0.17061425 0.00844553
-0.18788133 0.17121481 0.00854018
-0.18786531 0.17141500 0.00857173
-0.18784929 0.17161519 0.00860328
-0.18783328 0.17181538 0.00863483
-0.18781726 0.17201557 0.00866638
-0.18780125 0.17221576 0.00869793
-0.18778523 0.17241595 0.00872948
-0.18776922 0.17261613 0.00876103
-0.18775320 0.17281632 0.00879258
-0.18773718 0.17301651 0.00882414
-0.18772117 0.17321670 0.00885569
-0.18770515 0.17341689 0.00888724
-0.18768914 0.17361707 0.00891879
-0.17968314 0.16713620 0.03892495
-0.17966788 0.16732690 0.03895500
-0.17965263 0.16751759 0.03898506
-0.17963737 0.16770829 0.03901511
-0.17962211 0.16789899 0.03904517
-0.17905762 0.17495482 0.04015719
-0.17904237 0.17514552 0.04018724
-0.17902711 0.17533621 0.04021730
-0.17901186 0.17552691 0.04024735
-0.17899660 0.17571761 0.04027741
-0.17898134 0.17590831 0.04030746
-0.17896609 0.17609901 0.04033752
-0.17895083 0.17628971 0.04036757
-0.17893557 0.17648040 0.04039763
-0.17892032 0.17667110 0.04042768
-0.17890506 0.17686180 0.04045773
-0.17888980 0.17705250 0.04048779
-0.17887455 0.17724319 0.04051784
-0.17885929 0.17743389 0.04054790
-0.17884404 0.17762459 0.04057795
-0.17882878 0.17781529 0.04060801
-0.17881352 0.17800599 0.04063806
-0.17879827 0.17819669 0.04066812
-0.17878301 0.17838738 0.04069817
-0.17876775 0.17857808 0.04072823
-0.17875250 0.17876878 0.04075828
-0.17873724 0.17895948 0.04078834
-0.17872198 0.17915017 0.04081839
-0.17870673 0.17934087 0.04084844
-0.17869147 0.17953157 0.04087850
-0.17867621 0.17972227 0.04090855
-0.17866096 0.17991297 0.04093861
-0.17849314 0.18201065 0.04126921
-0.17847788 0.18220134 0.04129926
-0.17846262 0.18239204 0.04132932
-0.17844737 0.18258274 0.04135937
-0.17843211 0.18277344 0.04138943
-0.17841686 0.18296414 0.04141948
-0.17840160 0.18315483 0.04144954
-0.17838634 0.18334553 0.04147959
-0.17837109 0.18353623 0.04150965
-0.17835583 0.18372693 0.04153970
-0.17834057 0.18391763 0.04156976
-0.17832532 0.18410833 0.04159981
-0.17831006 0.18429902 0.04162986
-0.17829480 0.18448972 0.04165992
-0.17827955 0.18468042 0.04168997
-0.17776083 0.19116415 0.04271183
-0.17774557 0.19135485 0.04274188
-0.17773032 0.19154555 0.04277194
-0.17771506 0.19173625 0.04280199
-0.17769980 0.19192695 0.04283205
-0.17768455 0.19211764 0.04286210
-0.17766929 0.19230834 0.04289216
-0.17765404 0.19249904 0.04292221
-0.17763878 0.19268974 0.04295227
-0.17762352 0.19288043 0.04298232
-0.17760827 0.19307113 0.04301238
-0.17759301 0.19326183 0.04304243
-0.17757775 0.19345253 0.04307249
-0.17756250 0.19364323 0.04310254
-0.17754724 0.19383393 0.04313259
-0.17753198 0.19402462 0.04316265
-0.17751673 0.19421532 0.04319270
-0.17750147 0.19440602 0.04322276
-0.17748621 0.19459672 0.04325281
-0.17747096 0.19478741 0.04328287
-0.19006637 0.11292158 0.00762397
-0.19005889 0.11312315 0.00762422
-0.19005974 0.11332865 0.00759363
-0.19005226 0.11353026 0.00759388
-0.19004478 0.11373189 0.00759414
-0.19002896 0.11392959 0.00762530
-0.18772461 0.11729944 0.01557113
-0.18774148 0.11751119 0.01548125
-0.18772584 0.11770666 0.01551206
-0.18771021 0.11790213 0.01554287
-0.18767832 0.11808939 0.01563400
-0.18766268 0.11828484 0.01566481
-0.18764704 0.11848029 0.01569561
-0.18763953 0.11867987 0.01569625
-0.18762389 0.11887533 0.01572706
-0.18764075 0.11908741 0.01563724
-0.18764135 0.11929124 0.01560774
-0.19117948 0.12381023 0.00210943
-0.19117197 0.12401459 0.00210941
-0.19120687 0.12424147 0.00195187
-0.19124179 0.12446850 0.00179418
-0.19123428 0.12467301 0.00179419
-0.19121828 0.12487302 0.00182571
-0.19120228 0.12507302 0.00185723
-0.18709382 0.13207212 0.01589122
-0.18761882 0.13361853 0.01377098
-0.18763579 0.13383489 0.01368018
-0.18762004 0.13403170 0.01371120
-0.18760430 0.13422851 0.01374222
-0.18760491 0.13443518 0.01371228
-0.18762188 0.13465176 0.01362146
-0.18763067 0.13486348 0.01356104
-0.18763128 0.13507030 0.01353113
-0.18762371 0.13527218 0.01353166
-0.18760796 0.13546911 0.01356270
-0.18759220 0.13566603 0.01359373
-0.18757645 0.13586295 0.01362477
-0.18756070 0.13605987 0.01365580
-0.18754494 0.13625679 0.01368684
-0.18891329 0.15578833 0.00608465
-0.18889727 0.15598851 0.00611620
-0.18888126 0.15618870 0.00614775
-0.18886524 0.15638889 0.00617930
-0.18884923 0.15658908 0.00621085
-0.18883321 0.15678927 0.00624240
-0.18881720 0.15698946 0.00627395
-0.18880118 0.15718964 0.00630550
-0.18878516 0.15738983 0.00633705
-0.18876915 0.15759002 0.00636860
-0.18875313 0.15779021 0.00640015
-0.18873712 0.15799040 0.00643170
-0.18872110 0.15819059 0.00646325
-0.18870509 0.15839078 0.00649480
-0.18867305 0.15879115 0.00655790
-0.18865704 0.15899134 0.00658945
-0.18864102 0.15919153 0.00662100
-0.18862501 0.15939172 0.00665255
-0.18860899 0.15959191 0.00668410
-0.18859298 0.15979209 0.00671565
-0.18857696 0.15999228 0.00674720
-0.18856095 0.16019247 0.00677875
-0.18824063 0.16419624 0.00740976
-0.18822462 0.16439643 0.00744131
-0.18820860 0.16459662 0.00747286
-0.18819258 0.16479681 0.00750441
-0.18809649 0.16599794 0.00769371
-0.18808048 0.16619813 0.00772526
-0.18806446 0.16639831 0.00775681
-0.18804844 0.16659850 0.00778836
-0.18803243 0.16679869 0.00781991
-0.18801641 0.16699888 0.00785147
-0.18800040 0.16719907 0.00788302
-0.18785626 0.16900076 0.00816697
-0.18784024 0.16920095 0.00819852
-0.18782422 0.16940114 0.00823007
-0.18780821 0.16960133 0.00826162
-0.18779219 0.16980152 0.00829317
-0.18777618 0.17000171 0.00832472
-0.18776016 0.17020189 0.00835627
-0.18774415 0.17040208 0.00838782
-0.18772813 0.17060227 0.00841937
-0.18768008 0.17120284 0.00851402
-0.18766407 0.17140303 0.00854557
-0.18764805 0.17160321 0.00857712
-0.18763204 0.17180340 0.00860867
-0.18761602 0.17200359 0.00864022
-0.18760000 0.17220378 0.00867177
-0.18758399 0.17240397 0.00870332
-0.18756797 0.17260416 0.00873487
-0.18755196 0.17280434 0.00876642
-0.18753594 0.17300453 0.00879797
-0.18751993 0.17320472 0.00882953
-0.18750391 0.17340491 0.00886108
-0.18748790 0.17360510 0.00889263
-0.17949143 0.16712479 0.03890003
-0.17885066 0.17513411 0.04016232
-0.17883541 0.17532480 0.04019238
-0.17882015 0.17551550 0.04022243
-0.17880489 0.17570620 0.04025249
-0.17878964 0.17589690 0.04028254
-0.17877438 0.17608760 0.04031260
-0.17875912 0.17627830 0.04034265
-0.17874387 0.17646899 0.04037271
-0.17872861 0.17665969 0.04040276
-0.17871335 0.17685039 0.04043281
-0.17869810 0.17704109 0.04046287
-0.17868284 0.17723178 0.04049292
-0.17866759 0.17742248 0.04052298
-0.17865233 0.17761318 0.04055303
-0.17863707 0.17780388 0.04058309
-0.17862182 0.17799458 0.04061314
-0.17860656 0.17818528 0.04064320
-0.17859130 0.17837597 0.04067325
-0.17857605 0.17856667 0.04070331
-0.17856079 0.17875737 0.04073336
-0.17854553 0.17894807 0.04076342
-0.17853028 0.17913876 0.04079347
-0.17851502 0.17932946 0.04082352
-0.17849977 0.17952016 0.04085358
-0.17848451 0.17971086 0.04088363
-0.17846925 0.17990156 0.04091369
-0.17819464 0.18333412 0.04145467
-0.17817938 0.18352482 0.04148473
-0.17816412 0.18371552 0.04151478
-0.17756912 0.19115274 0.04268691
-0.17755387 0.19134344 0.04271696
-0.17753861 0.19153414 0.04274702
-0.17752335 0.19172484 0.04277707
-0.17750810 0.19191554 0.04280713
-0.17749284 0.19210623 0.04283718
-0.17747759 0.19229693 0.04286724
-0.17746233 0.19248763 0.04289729
-0.17744707 0.19267833 0.04292735
-0.17743182 0.19286902 0.04295740
-0.17741656 0.19305972 0.04298746
-0.17740130 0.19325042 0.04301751
-0.17738605 0.19344112 0.04304756
-0.17737079 0.19363182 0.04307762
-0.17735553 0.19382252 0.04310767
-0.17734028 0.19401321 0.04313773
-0.17732502 0.19420391 0.04316778
-0.17730976 0.19439461 0.04319784
-0.17729451 0.19458531 0.04322789
-0.17727925 0.19477600 0.04325795
-0.17726400 0.19496670 0.04328800
-0.18984437 0.11330898 0.00762954
-0.18984520 0.11351450 0.00759895
-0.18982939 0.11371218 0.00763010
-0.18751943 0.11708014 0.01560525
-0.18752003 0.11728369 0.01557570
-0.18752063 0.11748726 0.01554622
-0.18751311 0.11768679 0.01554685
-0.18748936 0.11787814 0.01560782
-0.18747372 0.11807358 0.01563863
-0.18745809 0.11826903 0.01566943
-0.18744245 0.11846447 0.01570023
-0.18741870 0.11865577 0.01576119
-0.18739496 0.11884707 0.01582210
-0.18739554 0.11905079 0.01579264
-0.18737991 0.11924623 0.01582344
-0.19102379 0.12444750 0.00183113
-0.19103322 0.12466105 0.00176805
-0.19101722 0.12486105 0.00179957
-0.18691242 0.13186434 0.01583471
-0.18689674 0.13206039 0.01586560
-0.18688105 0.13225644 0.01589650
-0.18738254 0.13440861 0.01377797
-0.18736679 0.13460541 0.01380898
-0.18736739 0.13481211 0.01377905
-0.18871205 0.15577635 0.00605849
-0.18869603 0.15597654 0.00609004
-0.18868002 0.15617673 0.00612159
-0.18866400 0.15637691 0.00615314
-0.18864798 0.15657710 0.00618469
-0.18863197 0.15677729 0.00621624
-0.18861595 0.15697748 0.00624779
-0.18859994 0.15717767 0.00627934
-0.18858392 0.15737786 0.00631089
-0.18856791 0.15757805 0.00634244
-0.18855189 0.15777823 0.00637399
-0.18853587 0.15797842 0.00640554
-0.18851986 0.15817861 0.00643709
-0.18850384 0.15837880 0.00646864
-0.18845580 0.15897936 0.00656329
-0.18843978 0.15917955 0.00659484
-0.18842377 0.15937974 0.00662639
-0.18840775 0.15957993 0.00665794
-0.18839173 0.15978012 0.00668949
-0.18837572 0.15998031 0.00672104
-0.18815150 0.16278294 0.00716275
-0.18813548 0.16298313 0.00719430
-0.18811947 0.16318332 0.00722585
-0.18805540 0.16398408 0.00735205
-0.18803939 0.16418426 0.00738360
-0.18802337 0.16438445 0.00741515
-0.18800736 0.16458464 0.00744670
-0.18799134 0.16478483 0.00747825
-0.18797533 0.16498502 0.00750980
-0.18787923 0.16618615 0.00769910
-0.18786322 0.16638634 0.00773065
-0.18784720 0.16658652 0.00776220
-0.18783119 0.16678671 0.00779375
-0.18781517 0.16698690 0.00782531
-0.18765501 0.16898879 0.00814081
-0.18763900 0.16918898 0.00817236
-0.18762298 0.16938916 0.00820391
-0.18760697 0.16958935 0.00823546
-0.18759095 0.16978954 0.00826701
-0.18757493 0.16998973 0.00829856
-0.18755892 0.17018992 0.00833011
-0.18754290 0.17039011 0.00836166
-0.18752689 0.17059029 0.00839321
-0.18747884 0.17119086 0.00848786
-0.18746282 0.17139105 0.00851941
-0.18744681 0.17159124 0.00855096
-0.18743079 0.17179142 0.00858251
-0.18741478 0.17199161 0.00861406
-0.18739876 0.17219180 0.00864561
-0.18738275 0.17239199 0.00867716
-0.18736673 0.17259218 0.00870871
-0.18735072 0.17279237 0.00874026
-0.18733470 0.17299256 0.00877181
-0.18731868 0.17319274 0.00880337
-0.18730267 0.17339293 0.00883492
-0.18728665 0.17359312 0.00886647
-0.17865896 0.17512270 0.04013740
-0.17864370 0.17531340 0.04016746
-0.17862844 0.17550410 0.04019751
-0.17861319 0.17569479 0.04022757
-0.17859793 0.17588549 0.04025762
-0.17858267 0.17607619 0.04028768
-0.17856742 0.17626689 0.04031773
-0.17855216 0.17645758 0.04034778
-0.17853690 0.17664828 0.04037784
-0.17852165 0.17683898 0.04040789
-0.17850639 0.17702968 0.04043795
-0.17849114 0.17722038 0.04046800
-0.17847588 0.17741108 0.04049806
-0.17846062 0.17760177 0.04052811
-0.17844537 0.17779247 0.04055817
-0.17843011 0.17798317 0.04058822
-0.17841485 0.17817387 0.04061828
-0.17839960 0.17836456 0.04064833
-0.17838434 0.17855526 0.04067839
-0.17836908 0.17874596 0.04070844
-0.17835383 0.17893666 0.04073849
-0.17833857 0.17912736 0.04076855
-0.17832332 0.17931806 0.04079860
-0.17830806 0.17950875 0.04082866
-0.17829280 0.17969945 0.04085871
-0.17827755 0.17989015 0.04088877
-0.17737742 0.19114133 0.04266199
-0.17736216 0.19133203 0.04269204
-0.17734690 0.19152273 0.04272210
-0.17733165 0.19171343 0.04275215
-0.17731639 0.19190413 0.04278221
-0.17730114 0.19209482 0.04281226
-0.17728588 0.19228552 0.04284232
-0.17727062 0.19247622 0.04287237
-0.17725537 0.19266692 0.04290243
-0.17724011 0.19285761 0.04293248
-0.17722485 0.19304831 0.04296254
-0.17720960 0.19323901 0.04299259
-0.17719434 0.19342971 0.04302264
-0.17717908 0.19362041 0.04305270
-0.17716383 0.19381111 0.04308275
-0.17714857 0.19400180 0.04311281
-0.17713332 0.19419250 0.04314286
-0.17711806 0.19438320 0.04317292
-0.17710280 0.19457390 0.04320297
-0.17708755 0.19476459 0.04323303
-0.17707229 0.19495529 0.04326308
-0.17705703 0.19514599 0.04329314
-0.19036910 0.10134740 0.00656993
-0.19044505 0.10158159 0.00626099
-0.19045428 0.10178916 0.00619931
-0.19048022 0.10200353 0.00607573
-0.18733053 0.11686901 0.01557904
-0.18732300 0.11706845 0.01557972
-0.18731547 0.11726793 0.01558034
-0.18731605 0.11747149 0.01555085
-0.18730852 0.11767101 0.01555148
-0.18729289 0.11786645 0.01558228
-0.18727725 0.11806189 0.01561309
-0.18726162 0.11825733 0.01564389
-0.18723787 0.11844865 0.01570485
-0.18720604 0.11863582 0.01579592
-0.18718230 0.11882708 0.01585688
-0.18716667 0.11902249 0.01588768
-0.18717533 0.11923037 0.01582806
-0.18716780 0.11942998 0.01582870
-0.19083217 0.12464908 0.00174191
-0.19081617 0.12484908 0.00177343
-0.18673102 0.13165657 0.01577819
-0.18672345 0.13185740 0.01577885
-0.18670776 0.13205345 0.01580975
-0.18669208 0.13224951 0.01584065
-0.18667639 0.13244556 0.01587155
-0.18671742 0.13267540 0.01569072
-0.18851080 0.15576437 0.00603233
-0.18849478 0.15596456 0.00606388
-0.18847877 0.15616475 0.00609543
-0.18846275 0.15636494 0.00612698
-0.18844673 0.15656512 0.00615853
-0.18843072 0.15676531 0.00619008
-0.18841470 0.15696550 0.00622163
-0.18839869 0.15716569 0.00625318
-0.18838267 0.15736588 0.00628473
-0.18836666 0.15756607 0.00631628
-0.18835064 0.15776626 0.00634783
-0.18833462 0.15796644 0.00637938
-0.18831861 0.15816663 0.00641093
-0.18830259 0.15836682 0.00644248
-0.18825455 0.15896739 0.00653713
-0.18823853 0.15916758 0.00656868
-0.18822252 0.15936776 0.00660023
-0.18820650 0.15956795 0.00663178
-0.18819048 0.15976814 0.00666333
-0.18817447 0.15996833 0.00669488
-0.18795025 0.16277097 0.00713659
-0.18793423 0.16297116 0.00716814
-0.18791822 0.16317134 0.00719969
-0.18790220 0.16337153 0.00723124
-0.18788619 0.16357172 0.00726279
-0.18787017 0.16377191 0.00729434
-0.18785415 0.16397210 0.00732589
-0.18783814 0.16417229 0.00735744
-0.18782212 0.16437247 0.00738899
-0.18780611 0.16457266 0.00742054
-0.18779009 0.16477285 0.00745209
-0.18777408 0.16497304 0.00748364
-0.18775806 0.16517323 0.00751519
-0.18767798 0.16617417 0.00767294
-0.18766197 0.16637436 0.00770449
-0.18764595 0.16657455 0.00773604
-0.18762994 0.16677474 0.00776759
-0.18743775 0.16917700 0.00814620
-0.18742173 0.16937719 0.00817775
-0.18740572 0.16957737 0.00820930
-0.18738970 0.16977756 0.00824085
-0.18737368 0.16997775 0.00827240
-0.18735767 0.17017794 0.00830395
-0.18734165 0.17037813 0.00833550
-0.18732564 0.17057832 0.00836705
-0.18727759 0.17117888 0.00846170
-0.18726157 0.17137907 0.00849325
-0.18724556 0.17157926 0.00852480
-0.18722954 0.17177945 0.00855635
-0.18721353 0.17197964 0.00858790
-0.18719751 0.17217982 0.00861945
-0.18718150 0.17238001 0.00865100
-0.18716548 0.17258020 0.00868255
-0.18714946 0.17278039 0.00871410
-0.18713345 0.17298058 0.00874565
-0.18711743 0.17318077 0.00877720
-0.18710142 0.17338095 0.00880875
