ply
format ascii 1.0
element vertex 1408
property float x
property float y
property float z
end_header
-0.16302115 0.44415879 0.13831439
-0.16298428 0.44432857 0.13841996
-0.16294742 0.44449835 0.13852552
-0.16291055 0.44466813 0.13863108
-0.16287369 0.44483791 0.13873665
-0.16283682 0.44500768 0.13884221
-0.16279996 0.44517746 0.13894777
-0.16276309 0.44534724 0.13905333
-0.16272623 0.44551702 0.13915890
-0.16268936 0.44568680 0.13926446
-0.16265250 0.44585657 0.13937002
-0.16261563 0.44602635 0.13947558
-0.16257877 0.44619613 0.13958115
-0.16254190 0.44636591 0.13968671
-0.16250504 0.44653569 0.13979227
-0.16246817 0.44670547 0.13989784
-0.16243131 0.44687524 0.14000340
-0.16239444 0.44704502 0.14010896
-0.16235758 0.44721480 0.14021452
-0.16232071 0.44738458 0.14032009
-0.16228385 0.44755436 0.14042565
-0.16224698 0.44772414 0.14053121
-0.16221012 0.44789391 0.14063678
-0.16217325 0.44806369 0.14074234
-0.16213639 0.44823347 0.14084790
-0.16209952 0.44840325 0.14095347
-0.16206266 0.44857303 0.14105903
-0.16031689 0.44396178 0.14714479
-0.16027339 0.44410979 0.14727385
-0.16023695 0.44427758 0.14737818
-0.16020052 0.44444537 0.14748251
-0.15423622 0.43318928 0.16788768
-0.15420110 0.43335101 0.16798824
-0.15416598 0.43351274 0.16808880
-0.15413086 0.43367447 0.16818936
-0.15409575 0.43383620 0.16828992
-0.15406063 0.43399793 0.16839047
-0.15402551 0.43415966 0.16849103
-0.15399039 0.43432139 0.16859159
-0.15395528 0.43448312 0.16869215
-0.16051433 0.45570371 0.14549267
-0.16047746 0.45587349 0.14559824
-0.16044060 0.45604327 0.14570380
-0.16040373 0.45621305 0.14580936
-0.16036687 0.45638283 0.14591492
-0.16033000 0.45655261 0.14602049
-0.16029314 0.45672238 0.14612605
-0.16025627 0.45689216 0.14623161
-0.18070166 0.36131053 0.08712437
-0.18065667 0.36146431 0.08725786
-0.18061982 0.36163400 0.08736337
-0.18066448 0.36196317 0.08718921
-0.18062761 0.36213295 0.08729478
-0.18059075 0.36230272 0.08740034
-0.18055388 0.36247250 0.08750590
-0.18051702 0.36264228 0.08761147
-0.18048015 0.36281206 0.08771703
-0.18044329 0.36298184 0.08782259
-0.18040642 0.36315161 0.08792815
-0.18036956 0.36332139 0.08803372
-0.18033269 0.36349117 0.08813928
-0.18029583 0.36366095 0.08824484
-0.18025896 0.36383073 0.08835041
-0.18009207 0.36374381 0.08890232
-0.17962130 0.36596530 0.09024578
-0.17970599 0.36637740 0.08993385
-0.17966912 0.36654718 0.09003941
-0.17955935 0.36657132 0.09039537
-0.17876383 0.36740879 0.09291797
-0.17884768 0.36782100 0.09260874
-0.17890749 0.36818508 0.09238214
-0.17889485 0.36840330 0.09240450
-0.17885805 0.36857281 0.09250990
-0.17881319 0.36872608 0.09264292
-0.17878443 0.36891183 0.09272069
-0.17873153 0.36904879 0.09288138
-0.17858897 0.36949208 0.09330806
-0.17860040 0.36975938 0.09324767
-0.17861184 0.37002687 0.09318720
-0.17849465 0.37003311 0.09356892
-0.17798079 0.37069597 0.09518780
-0.17796004 0.37089788 0.09523801
-0.17792329 0.37106710 0.09534323
-0.17787855 0.37121997 0.09547594
-0.17782584 0.37135648 0.09563607
-0.17774918 0.37144381 0.09587860
-0.17762471 0.37143299 0.09628552
-0.17362257 0.36513206 0.10988579
-0.17361709 0.36536003 0.10988394
-0.17361160 0.36558805 0.10988212
-0.17364412 0.36589478 0.10974951
-0.17361582 0.36607584 0.10982616
-0.17358753 0.36625695 0.10990276
-0.17356682 0.36645379 0.10995328
-0.17353852 0.36663493 0.11002991
-0.17358624 0.36697390 0.10984493
-0.17355032 0.36713936 0.10994780
-0.17351439 0.36730482 0.11005068
-0.17347846 0.36747027 0.11015355
-0.17345013 0.36765155 0.11023027
-0.17340661 0.36780118 0.11035931
-0.16875161 0.36680510 0.12563013
-0.16873088 0.36699795 0.12568108
-0.16869572 0.36715990 0.12578178
-0.16863891 0.36727546 0.12595707
-0.16856771 0.36736001 0.12618205
-0.17208169 0.38619095 0.11308992
-0.17212921 0.38654451 0.11290433
-0.17210810 0.38674589 0.11295574
-0.17207936 0.38693034 0.11303353
-0.17204299 0.38709783 0.11313767
-0.17200662 0.38726533 0.11324181
-0.17197787 0.38744978 0.11331967
-0.17194912 0.38763428 0.11339748
-0.17191274 0.38780179 0.11350164
-0.17189923 0.38802037 0.11352677
-0.17187809 0.38822194 0.11357831
-0.17190268 0.38852581 0.11347183
-0.17190440 0.38877873 0.11344431
-0.17189087 0.38899762 0.11346950
-0.17191548 0.38930204 0.11336288
-0.17190195 0.38952113 0.11338806
-0.17187315 0.38970600 0.11346604
-0.17185198 0.38990806 0.11351760
-0.17181554 0.39007586 0.11362193
-0.17177911 0.39024366 0.11372626
-0.17173504 0.39039429 0.11385696
-0.17169861 0.39056208 0.11396129
-0.17166218 0.39072987 0.11406561
-0.17161051 0.39086331 0.11422259
-0.17155124 0.39097953 0.11440590
-0.17146916 0.39104417 0.11466804
-0.16824098 0.41917845 0.12276392
-0.16820411 0.41934823 0.12286949
-0.16816725 0.41951800 0.12297505
-0.16813038 0.41968778 0.12308061
-0.16809352 0.41985756 0.12318618
-0.16805665 0.42002734 0.12329174
-0.16801979 0.42019712 0.12339730
-0.16798292 0.42036690 0.12350286
-0.16794606 0.42053667 0.12360843
-0.16790919 0.42070645 0.12371399
-0.16787233 0.42087623 0.12381955
-0.16720876 0.42393224 0.12571968
-0.16717189 0.42410202 0.12582525
-0.16713503 0.42427180 0.12593081
-0.16709816 0.42444157 0.12603637
-0.16706130 0.42461135 0.12614194
-0.16702443 0.42478113 0.12624750
-0.16698757 0.42495091 0.12635306
-0.16695070 0.42512069 0.12645863
-0.16691384 0.42529047 0.12656419
-0.16687697 0.42546024 0.12666975
-0.16684011 0.42563002 0.12677531
-0.16680324 0.42579980 0.12688088
-0.16676638 0.42596958 0.12698644
-0.16672951 0.42613936 0.12709200
-0.16669265 0.42630914 0.12719757
-0.16665578 0.42647891 0.12730313
-0.16661892 0.42664869 0.12740869
-0.16658205 0.42681847 0.12751426
-0.16654519 0.42698825 0.12761982
-0.16495999 0.43428872 0.13215903
-0.16492313 0.43445849 0.13226459
-0.16488626 0.43462827 0.13237015
-0.16484940 0.43479805 0.13247571
-0.16481253 0.43496783 0.13258128
-0.16477567 0.43513761 0.13268684
-0.16473880 0.43530739 0.13279240
-0.16470194 0.43547716 0.13289796
-0.16466507 0.43564694 0.13300353
-0.16462821 0.43581672 0.13310909
-0.16459134 0.43598650 0.13321465
-0.16455448 0.43615628 0.13332022
-0.16451761 0.43632605 0.13342578
-0.16448075 0.43649583 0.13353134
-0.16444388 0.43666561 0.13363690
-0.16440702 0.43683539 0.13374247
-0.16437015 0.43700517 0.13384803
-0.16433329 0.43717495 0.13395359
-0.16429642 0.43734472 0.13405916
-0.16425956 0.43751450 0.13416472
-0.16422269 0.43768428 0.13427028
-0.16418583 0.43785406 0.13437585
-0.16414896 0.43802384 0.13448141
-0.16411210 0.43819362 0.13458697
-0.16407523 0.43836339 0.13469253
-0.16403837 0.43853317 0.13479810
-0.16400150 0.43870295 0.13490366
-0.16396464 0.43887273 0.13500922
-0.16392777 0.43904251 0.13511479
-0.16389091 0.43921229 0.13522035
-0.16385404 0.43938206 0.13532591
-0.16381718 0.43955184 0.13543148
-0.16378031 0.43972162 0.13553704
-0.16374345 0.43989140 0.13564260
-0.16370658 0.44006118 0.13574816
-0.16366972 0.44023096 0.13585373
-0.16363285 0.44040073 0.13595929
-0.16359599 0.44057051 0.13606485
-0.16355912 0.44074029 0.13617042
-0.16352226 0.44091007 0.13627598
-0.16348539 0.44107985 0.13638154
-0.16344853 0.44124962 0.13648710
-0.16341166 0.44141940 0.13659267
-0.16337480 0.44158918 0.13669823
-0.16333793 0.44175896 0.13680379
-0.16330107 0.44192874 0.13690936
-0.16326420 0.44209852 0.13701492
-0.16322734 0.44226829 0.13712048
-0.16319047 0.44243807 0.13722605
-0.16315361 0.44260785 0.13733161
-0.16311674 0.44277763 0.13743717
-0.16307988 0.44294741 0.13754273
-0.16304301 0.44311719 0.13764830
-0.16300615 0.44328696 0.13775386
-0.16296928 0.44345674 0.13785942
-0.16293242 0.44362652 0.13796499
-0.16289555 0.44379630 0.13807055
-0.16285869 0.44396608 0.13817611
-0.16282182 0.44413586 0.13828168
-0.16278496 0.44430563 0.13838724
-0.16274809 0.44447541 0.13849280
-0.16271123 0.44464519 0.13859836
-0.16267436 0.44481497 0.13870393
-0.16263750 0.44498475 0.13880949
-0.16260063 0.44515453 0.13891505
-0.16256377 0.44532430 0.13902062
-0.16252690 0.44549408 0.13912618
-0.16249004 0.44566386 0.13923174
-0.16245318 0.44583364 0.13933730
-0.16241631 0.44600342 0.13944287
-0.16237945 0.44617319 0.13954843
-0.16234258 0.44634297 0.13965399
-0.16230572 0.44651275 0.13975955
-0.16226885 0.44668253 0.13986512
-0.16223199 0.44685231 0.13997068
-0.16219512 0.44702209 0.14007624
-0.16215826 0.44719186 0.14018181
-0.16212139 0.44736164 0.14028737
-0.16208453 0.44753142 0.14039293
-0.16204766 0.44770120 0.14049850
-0.16201080 0.44787098 0.14060406
-0.16197393 0.44804076 0.14070962
-0.16193707 0.44821053 0.14081518
-0.16190020 0.44838031 0.14092075
-0.16186334 0.44855009 0.14102631
-0.16182647 0.44871987 0.14113187
-0.16178961 0.44888965 0.14123744
-0.16175274 0.44905943 0.14134300
-0.16171588 0.44922920 0.14144856
-0.16167901 0.44939898 0.14155413
-0.15401122 0.43332916 0.16795708
-0.15397610 0.43349089 0.16805763
-0.15394098 0.43365262 0.16815819
-0.15390587 0.43381435 0.16825875
-0.15387075 0.43397608 0.16835931
-0.15383563 0.43413781 0.16845987
-0.15380052 0.43429954 0.16856042
-0.15376540 0.43446127 0.16866098
-0.16031501 0.45568078 0.14545995
-0.16027814 0.45585056 0.14556552
-0.16024128 0.45602033 0.14567108
-0.16020441 0.45619011 0.14577664
-0.16016755 0.45635989 0.14588221
-0.16013068 0.45652967 0.14598777
-0.16009382 0.45669945 0.14609333
-0.16005695 0.45686923 0.14619890
-0.16002009 0.45703900 0.14630446
-0.18045744 0.36144138 0.08722515
-0.18050202 0.36177045 0.08705093
-0.18046515 0.36194023 0.08715650
-0.18042829 0.36211001 0.08726206
-0.18039142 0.36227979 0.08736762
-0.18035456 0.36244957 0.08747319
-0.18031769 0.36261934 0.08757875
-0.18028083 0.36278912 0.08768431
-0.18024396 0.36295890 0.08778987
-0.18020710 0.36312868 0.08789544
-0.18017024 0.36329846 0.08800100
-0.18013337 0.36346823 0.08810656
-0.18009651 0.36363801 0.08821213
-0.17987669 0.36368884 0.08892537
-0.17932342 0.36453165 0.09065830
-0.17928926 0.36543433 0.09069112
-0.17931706 0.36573271 0.09057438
-0.17940955 0.36616051 0.09023510
-0.17937270 0.36633019 0.09034060
-0.17858919 0.36743446 0.09280247
-0.17864078 0.36778191 0.09260375
-0.17866830 0.36808104 0.09248782
-0.17866367 0.36831544 0.09248251
-0.17863491 0.36850115 0.09256024
-0.17859007 0.36865440 0.09269326
-0.17857738 0.36887268 0.09271565
-0.17850844 0.36897706 0.09293168
-0.17840741 0.36901635 0.09325809
-0.17837063 0.36918575 0.09336342
-0.17839001 0.36946919 0.09327540
-0.17836125 0.36965494 0.09335316
-0.17832445 0.36982440 0.09345853
-0.17823151 0.36987966 0.09375714
-0.17781408 0.37073846 0.09504517
-0.17779331 0.37094039 0.09509540
-0.17774058 0.37107694 0.09525563
-0.17768786 0.37121347 0.09541584
-0.17764314 0.37136632 0.09554854
-0.17757450 0.37147006 0.09576362
-0.17344381 0.36514111 0.10980166
-0.17344588 0.36538476 0.10977369
-0.17344795 0.36562855 0.10974567
-0.17345762 0.36588817 0.10969149
-0.17342931 0.36606926 0.10976809
-0.17340099 0.36625035 0.10984475
-0.17338028 0.36644722 0.10989522
-0.17335955 0.36664413 0.10994572
-0.17339199 0.36695155 0.10981304
-0.17335606 0.36711700 0.10991592
-0.16856149 0.36678322 0.12559893
-0.16854795 0.36699152 0.12562499
-0.16850557 0.36713802 0.12575057
-0.16847041 0.36729998 0.12585127
-0.17190212 0.38645417 0.11297742
-0.17189623 0.38668935 0.11297619
-0.17186748 0.38687379 0.11305396
-0.17183111 0.38704127 0.11315809
-0.17179475 0.38720875 0.11326223
-0.17176599 0.38739321 0.11334002
-0.17176007 0.38762864 0.11333887
-0.17172370 0.38779616 0.11344303
-0.17171776 0.38803175 0.11344184
-0.17169660 0.38823334 0.11349338
-0.17172112 0.38853728 0.11338680
-0.17173042 0.38880728 0.11333293
-0.17176259 0.38912873 0.11319985
-0.17174903 0.38934777 0.11322506
-0.17172022 0.38953267 0.11330299
-0.17169904 0.38973472 0.11335454
-0.17167022 0.38991967 0.11343250
-0.17164140 0.39010463 0.11351046
-0.17160496 0.39027245 0.11361481
-0.17156091 0.39042311 0.11374552
-0.17151685 0.39057376 0.11387623
-0.17147280 0.39072438 0.11400692
-0.17142876 0.39087499 0.11413761
-0.17136950 0.39099122 0.11432092
-0.16800479 0.41932529 0.12283677
-0.16796792 0.41949507 0.12294233
-0.16793106 0.41966485 0.12304789
-0.16789419 0.41983462 0.12315346
-0.16785733 0.42000440 0.12325902
-0.16782046 0.42017418 0.12336458
-0.16778360 0.42034396 0.12347015
-0.16774673 0.42051374 0.12357571
-0.16770987 0.42068351 0.12368127
-0.16767300 0.42085329 0.12378683
-0.16763614 0.42102307 0.12389240
-0.16693571 0.42424886 0.12589809
-0.16689884 0.42441864 0.12600366
-0.16686198 0.42458842 0.12610922
-0.16682511 0.42475819 0.12621478
-0.16678825 0.42492797 0.12632034
-0.16675138 0.42509775 0.12642591
-0.16671452 0.42526753 0.12653147
-0.16667765 0.42543731 0.12663703
-0.16664079 0.42560709 0.12674260
-0.16660392 0.42577686 0.12684816
-0.16656706 0.42594664 0.12695372
-0.16653019 0.42611642 0.12705929
-0.16649333 0.42628620 0.12716485
-0.16645646 0.42645598 0.12727041
-0.16641960 0.42662576 0.12737597
-0.16638273 0.42679553 0.12748154
-0.16634587 0.42696531 0.12758710
-0.16630900 0.42713509 0.12769266
-0.16472381 0.43443556 0.13223187
-0.16468694 0.43460534 0.13233743
-0.16465008 0.43477511 0.13244300
-0.16461321 0.43494489 0.13254856
-0.16457635 0.43511467 0.13265412
-0.16453948 0.43528445 0.13275969
-0.16450262 0.43545423 0.13286525
-0.16446575 0.43562401 0.13297081
-0.16442889 0.43579378 0.13307637
-0.16439202 0.43596356 0.13318194
-0.16435516 0.43613334 0.13328750
-0.16431829 0.43630312 0.13339306
-0.16428143 0.43647290 0.13349862
-0.16424456 0.43664267 0.13360419
-0.16420770 0.43681245 0.13370975
-0.16417083 0.43698223 0.13381531
-0.16413397 0.43715201 0.13392088
-0.16409710 0.43732179 0.13402644
-0.16406024 0.43749157 0.13413200
-0.16402337 0.43766134 0.13423756
-0.16398651 0.43783112 0.13434313
-0.16394964 0.43800090 0.13444869
-0.16391278 0.43817068 0.13455425
-0.16387591 0.43834046 0.13465982
-0.16383905 0.43851024 0.13476538
-0.16380218 0.43868001 0.13487094
-0.16376532 0.43884979 0.13497651
-0.16372845 0.43901957 0.13508207
-0.16369159 0.43918935 0.13518763
-0.16365472 0.43935913 0.13529319
-0.16361786 0.43952891 0.13539876
-0.16358099 0.43969868 0.13550432
-0.16354413 0.43986846 0.13560988
-0.16350726 0.44003824 0.13571545
-0.16347040 0.44020802 0.13582101
-0.16343353 0.44037780 0.13592657
-0.16339667 0.44054758 0.13603214
-0.16335980 0.44071735 0.13613770
-0.16332294 0.44088713 0.13624326
-0.16328607 0.44105691 0.13634882
-0.16324921 0.44122669 0.13645439
-0.16321234 0.44139647 0.13655995
-0.16317548 0.44156624 0.13666551
-0.16313861 0.44173602 0.13677108
-0.16310175 0.44190580 0.13687664
-0.16306488 0.44207558 0.13698220
-0.16302802 0.44224536 0.13708776
-0.16299115 0.44241514 0.13719333
-0.16295429 0.44258491 0.13729889
-0.16291742 0.44275469 0.13740445
-0.16288056 0.44292447 0.13751002
-0.16284369 0.44309425 0.13761558
-0.16280683 0.44326403 0.13772114
-0.16276996 0.44343381 0.13782671
-0.16273310 0.44360358 0.13793227
-0.16269623 0.44377336 0.13803783
-0.16265937 0.44394314 0.13814339
-0.16262250 0.44411292 0.13824896
-0.16258564 0.44428270 0.13835452
-0.16254877 0.44445248 0.13846008
-0.16251191 0.44462225 0.13856565
-0.16247504 0.44479203 0.13867121
-0.16243818 0.44496181 0.13877677
-0.16240131 0.44513159 0.13888234
-0.16236445 0.44530137 0.13898790
-0.16232758 0.44547115 0.13909346
-0.16229072 0.44564092 0.13919902
-0.16225385 0.44581070 0.13930459
-0.16221699 0.44598048 0.13941015
-0.16218012 0.44615026 0.13951571
-0.16214326 0.44632004 0.13962128
-0.16210639 0.44648981 0.13972684
-0.16206953 0.44665959 0.13983240
-0.16203266 0.44682937 0.13993796
-0.16199580 0.44699915 0.14004353
-0.16195893 0.44716893 0.14014909
-0.16192207 0.44733871 0.14025465
-0.16188520 0.44750848 0.14036021
-0.16184834 0.44767826 0.14046578
-0.16181147 0.44784804 0.14057134
-0.16177461 0.44801782 0.14067690
-0.16173774 0.44818760 0.14078247
-0.16170088 0.44835738 0.14088803
-0.16166401 0.44852715 0.14099359
-0.16162715 0.44869693 0.14109916
-0.16159028 0.44886671 0.14120472
-0.16155342 0.44903649 0.14131028
-0.16151655 0.44920627 0.14141584
-0.16147969 0.44937605 0.14152141
-0.16144282 0.44954582 0.14162697
-0.15378623 0.43346904 0.16802647
-0.15375111 0.43363077 0.16812703
-0.15371600 0.43379250 0.16822758
-0.15368088 0.43395423 0.16832814
-0.15364576 0.43411596 0.16842870
-0.15361065 0.43427769 0.16852926
-0.15357553 0.43443942 0.16862982
-0.16007882 0.45582762 0.14553280
-0.16004195 0.45599740 0.14563836
-0.16000509 0.45616718 0.14574393
-0.15996822 0.45633695 0.14584949
-0.15993136 0.45650673 0.14595505
-0.15989449 0.45667651 0.14606061
-0.15985763 0.45684629 0.14616618
-0.15982076 0.45701607 0.14627174
-0.15978390 0.45718585 0.14637730
-0.18030269 0.36174751 0.08701822
-0.18026582 0.36191729 0.08712378
-0.18022896 0.36208707 0.08722934
-0.18010270 0.36208128 0.08764244
-0.18003713 0.36243662 0.08782552
-0.18008150 0.36276618 0.08765159
-0.18004463 0.36293596 0.08775716
-0.18000777 0.36310574 0.08786272
-0.17997090 0.36327552 0.08796828
-0.17919814 0.36417005 0.09041505
-0.17917748 0.36437149 0.09046484
-0.17914877 0.36455692 0.09054240
-0.17912005 0.36474236 0.09061997
-0.17909133 0.36492781 0.09069755
-0.17907066 0.36512936 0.09074740
-0.17909029 0.36541144 0.09065846
-0.17842253 0.36747633 0.09265931
-0.17844192 0.36775903 0.09257111
-0.17846134 0.36804194 0.09248282
-0.17844864 0.36826007 0.09250519
-0.17841184 0.36842953 0.09261055
-0.17837504 0.36859899 0.09271592
-0.17833825 0.36876845 0.09282128
-0.17826937 0.36887283 0.09303724
-0.17821654 0.36900972 0.09319782
-0.17817976 0.36917914 0.09330316
-0.17816701 0.36939742 0.09332562
-0.17814625 0.36959943 0.09337576
-0.17809343 0.36973629 0.09353632
-0.17803262 0.36985677 0.09372449
-0.17799583 0.37002619 0.09382983
-0.17795904 0.37019560 0.09393516
-0.17763933 0.37076463 0.09492999
-0.17760257 0.37093390 0.09503524
-0.17755784 0.37108678 0.09516803
-0.17750514 0.37122332 0.09532825
-0.17745245 0.37135983 0.09548845
-0.17324985 0.36511879 0.10976982
-0.17325186 0.36536243 0.10974184
-0.17325389 0.36560621 0.10971382
-0.17326350 0.36586583 0.10965963
-0.17323519 0.36604692 0.10973623
-0.17320687 0.36622801 0.10981288
-0.17317855 0.36640911 0.10988955
-0.17315022 0.36659025 0.10996618
-0.17312948 0.36678717 0.11001668
-0.16842898 0.36688492 0.12536862
-0.16840821 0.36707786 0.12541955
-0.16837303 0.36723988 0.12552029
-0.16828746 0.36729357 0.12579519
-0.17169794 0.38641460 0.11297152
-0.17167679 0.38661590 0.11302295
-0.17164043 0.38678335 0.11312706
-0.17160407 0.38695080 0.11323118
-0.17158292 0.38715220 0.11328260
-0.17156175 0.38735360 0.11333409
-0.17156339 0.38760601 0.11330659
-0.17154983 0.38782456 0.11333170
-0.17152865 0.38802612 0.11338322
-0.17154550 0.38831290 0.11330301
-0.17156996 0.38861694 0.11319635
-0.17160207 0.38893831 0.11306322
-0.17159610 0.38917442 0.11306200
-0.17156728 0.38935933 0.11313993
-0.17154608 0.38956137 0.11319147
-0.17152487 0.38976344 0.11324303
-0.17150365 0.38996555 0.11329462
-0.17146721 0.39013340 0.11339898
-0.17143076 0.39030124 0.11350334
-0.17138670 0.39045193 0.11363407
-0.17134266 0.39060260 0.11376480
-0.17129101 0.39073607 0.11392187
-0.17123936 0.39086951 0.11407892
-0.17117255 0.39096856 0.11428859
-0.16776859 0.41947213 0.12290961
-0.16773173 0.41964191 0.12301518
-0.16769486 0.41981169 0.12312074
-0.16765800 0.41998146 0.12322630
-0.16762113 0.42015124 0.12333186
-0.16758427 0.42032102 0.12343743
-0.16754740 0.42049080 0.12354299
-0.16751054 0.42066058 0.12364855
-0.16747367 0.42083035 0.12375412
-0.16743681 0.42100013 0.12385968
-0.16739994 0.42116991 0.12396524
-0.16673637 0.42422592 0.12586537
-0.16669951 0.42439570 0.12597094
-0.16666264 0.42456548 0.12607650
-0.16662578 0.42473526 0.12618206
-0.16658891 0.42490503 0.12628763
-0.16655205 0.42507481 0.12639319
-0.16651518 0.42524459 0.12649875
-0.16647832 0.42541437 0.12660431
-0.16644145 0.42558415 0.12670988
-0.16640459 0.42575393 0.12681544
-0.16636772 0.42592370 0.12692100
-0.16633086 0.42609348 0.12702657
-0.16629399 0.42626326 0.12713213
-0.16625713 0.42643304 0.12723769
-0.16622026 0.42660282 0.12734326
-0.16618340 0.42677260 0.12744882
-0.16614653 0.42694237 0.12755438
-0.16610967 0.42711215 0.12765994
-0.16607280 0.42728193 0.12776551
-0.16452448 0.43441262 0.13219915
-0.16448761 0.43458240 0.13230471
-0.16445075 0.43475217 0.13241028
-0.16441388 0.43492195 0.13251584
-0.16437702 0.43509173 0.13262140
-0.16434015 0.43526151 0.13272697
-0.16430329 0.43543129 0.13283253
-0.16426642 0.43560107 0.13293809
-0.16422956 0.43577084 0.13304365
-0.16419269 0.43594062 0.13314922
-0.16415583 0.43611040 0.13325478
-0.16411896 0.43628018 0.13336034
-0.16408210 0.43644996 0.13346591
-0.16404523 0.43661973 0.13357147
-0.16400837 0.43678951 0.13367703
-0.16397150 0.43695929 0.13378259
-0.16393464 0.43712907 0.13388816
-0.16389777 0.43729885 0.13399372
-0.16386091 0.43746863 0.13409928
-0.16382404 0.43763840 0.13420485
-0.16378718 0.43780818 0.13431041
-0.16375031 0.43797796 0.13441597
-0.16371345 0.43814774 0.13452154
-0.16367658 0.43831752 0.13462710
-0.16363972 0.43848730 0.13473266
-0.16360285 0.43865707 0.13483822
-0.16356599 0.43882685 0.13494379
-0.16352912 0.43899663 0.13504935
-0.16349226 0.43916641 0.13515491
-0.16345539 0.43933619 0.13526048
-0.16341853 0.43950597 0.13536604
-0.16338166 0.43967574 0.13547160
-0.16334480 0.43984552 0.13557717
-0.16330793 0.44001530 0.13568273
-0.16327107 0.44018508 0.13578829
-0.16323420 0.44035486 0.13589385
-0.16319734 0.44052464 0.13599942
-0.16316047 0.44069441 0.13610498
-0.16312361 0.44086419 0.13621054
-0.16308674 0.44103397 0.13631611
-0.16304988 0.44120375 0.13642167
-0.16301301 0.44137353 0.13652723
-0.16297615 0.44154330 0.13663279
-0.16293928 0.44171308 0.13673836
-0.16290242 0.44188286 0.13684392
-0.16286555 0.44205264 0.13694948
-0.16282869 0.44222242 0.13705504
-0.16279182 0.44239220 0.13716061
-0.16275496 0.44256197 0.13726617
-0.16271809 0.44273175 0.13737173
-0.16268123 0.44290153 0.13747730
-0.16264436 0.44307131 0.13758286
-0.16260750 0.44324109 0.13768842
-0.16257063 0.44341087 0.13779399
-0.16253377 0.44358064 0.13789955
-0.16249690 0.44375042 0.13800511
-0.16246004 0.44392020 0.13811067
-0.16242317 0.44408998 0.13821624
-0.16238631 0.44425976 0.13832180
-0.16234944 0.44442954 0.13842736
-0.16231258 0.44459931 0.13853293
-0.16227571 0.44476909 0.13863849
-0.16223885 0.44493887 0.13874405
-0.16220198 0.44510865 0.13884962
-0.16216512 0.44527843 0.13895518
-0.16212825 0.44544821 0.13906074
-0.16209139 0.44561798 0.13916630
-0.16205452 0.44578776 0.13927187
-0.16201766 0.44595754 0.13937743
-0.16198079 0.44612732 0.13948299
-0.16194393 0.44629710 0.13958856
-0.16190706 0.44646687 0.13969412
-0.16187020 0.44663665 0.13979968
-0.16183333 0.44680643 0.13990524
-0.16179647 0.44697621 0.14001081
-0.16175960 0.44714599 0.14011637
-0.16172274 0.44731577 0.14022193
-0.16168587 0.44748554 0.14032750
-0.16164901 0.44765532 0.14043306
-0.16161214 0.44782510 0.14053862
-0.16157528 0.44799488 0.14064419
-0.16153841 0.44816466 0.14074975
-0.16150155 0.44833444 0.14085531
-0.16146468 0.44850421 0.14096087
-0.16142782 0.44867399 0.14106644
-0.16139095 0.44884377 0.14117200
-0.16135409 0.44901355 0.14127756
-0.16131722 0.44918333 0.14138313
-0.16128036 0.44935311 0.14148869
-0.16124349 0.44952288 0.14159425
-0.16120663 0.44969266 0.14169982
-0.15356124 0.43360892 0.16809586
-0.15352612 0.43377065 0.16819642
-0.15349100 0.43393238 0.16829697
-0.15345588 0.43409411 0.16839753
-0.15342077 0.43425584 0.16849809
-0.15338565 0.43441757 0.16859865
-0.15984262 0.45597446 0.14560564
-0.15980576 0.45614424 0.14571121
-0.15976889 0.45631401 0.14581677
-0.15973203 0.45648379 0.14592233
-0.15969516 0.45665357 0.14602789
-0.15965830 0.45682335 0.14613346
-0.15962143 0.45699313 0.14623902
-0.15958457 0.45716291 0.14634458
-0.15954770 0.45733268 0.14645015
-0.18006650 0.36189435 0.08709106
-0.17982168 0.36238176 0.08784870
-0.17988218 0.36274325 0.08761888
-0.17984531 0.36291302 0.08772444
-0.17980845 0.36308280 0.08783000
-0.17901997 0.36394580 0.09033260
-0.17901541 0.36417923 0.09032688
-0.17898669 0.36436465 0.09040444
-0.17895796 0.36455008 0.09048200
-0.17893727 0.36475158 0.09053183
-0.17890854 0.36493705 0.09060942
-0.17893617 0.36523513 0.09049268
-0.17890742 0.36542073 0.09057028
-0.17823977 0.36748581 0.09257141
-0.17824308 0.36773614 0.09253847
-0.17824638 0.36798659 0.09250552
-0.17822562 0.36818848 0.09255552
-0.17817281 0.36832542 0.09271620
-0.17811999 0.36846237 0.09287681
-0.17809923 0.36866426 0.09292688
-0.17804643 0.36880117 0.09308747
-0.17800964 0.36897057 0.09319280
-0.17797286 0.36913998 0.09329813
-0.17796009 0.36935822 0.09332063
-0.17793130 0.36954396 0.09339831
-0.17789451 0.36971340 0.09350367
-0.17784172 0.36985019 0.09366425
-0.17779694 0.37000330 0.09379718
-0.17776015 0.37017271 0.09390252
-0.17772337 0.37034212 0.09400785
-0.17768658 0.37051153 0.09411318
-0.17733522 0.37101486 0.09521790
-0.17725071 0.37108598 0.09548803
-0.17305029 0.36532444 0.10973612
-0.17303712 0.36553678 0.10976041
-0.17303909 0.36578061 0.10973241
-0.17303349 0.36600883 0.10973057
-0.17299759 0.36617416 0.10983337
-0.16834597 0.36685560 0.12498745
-0.16831078 0.36701768 0.12508823
-0.16828998 0.36721072 0.12513915
-0.16826199 0.36738831 0.12521501
-0.16822679 0.36755041 0.12531580
-0.17154533 0.38624149 0.11280878
-0.17150897 0.38640893 0.11291289
-0.17148020 0.38659328 0.11299068
-0.17144385 0.38676073 0.11309480
-0.17140749 0.38692818 0.11319891
-0.17137872 0.38711260 0.11327667
-0.17136513 0.38733097 0.11330181
-0.17137432 0.38760037 0.11324797
-0.17135312 0.38780193 0.11329941
-0.17133952 0.38802049 0.11332460
-0.17139430 0.38839251 0.11311252
-0.17143393 0.38873080 0.11295300
-0.17143554 0.38898396 0.11292534
-0.17141432 0.38918596 0.11297685
-0.17139310 0.38938799 0.11302839
-0.17137949 0.38960718 0.11305355
-0.17137347 0.38984354 0.11305235
-0.17133702 0.39001142 0.11315673
-0.17130057 0.39017930 0.11326111
-0.17125651 0.39033003 0.11339187
-0.17122006 0.39049790 0.11349625
-0.17117601 0.39064860 0.11362699
-0.17110918 0.39074775 0.11383681
-0.17104996 0.39086403 0.11402022
-0.16753241 0.41961897 0.12298246
-0.16749554 0.41978875 0.12308802
-0.16745868 0.41995853 0.12319358
-0.16742181 0.42012830 0.12329915
-0.16738495 0.42029808 0.12340471
-0.16734808 0.42046786 0.12351027
-0.16731122 0.42063764 0.12361583
-0.16727435 0.42080742 0.12372140
-0.16723749 0.42097720 0.12382696
-0.16720062 0.42114697 0.12393252
-0.16716376 0.42131675 0.12403809
-0.16653705 0.42420298 0.12583266
-0.16650019 0.42437276 0.12593822
-0.16646332 0.42454254 0.12604378
-0.16642646 0.42471232 0.12614935
-0.16638959 0.42488210 0.12625491
-0.16635273 0.42505187 0.12636047
-0.16631586 0.42522165 0.12646603
-0.16627900 0.42539143 0.12657160
-0.16624213 0.42556121 0.12667716
-0.16620527 0.42573099 0.12678272
-0.16616840 0.42590077 0.12688829
-0.16613154 0.42607054 0.12699385
-0.16609467 0.42624032 0.12709941
-0.16605781 0.42641010 0.12720497
-0.16602094 0.42657988 0.12731054
-0.16598408 0.42674966 0.12741610
-0.16594721 0.42691944 0.12752166
-0.16591035 0.42708921 0.12762723
-0.16587348 0.42725899 0.12773279
-0.16428829 0.43455946 0.13227200
-0.16425142 0.43472924 0.13237756
-0.16421456 0.43489902 0.13248312
-0.16417769 0.43506879 0.13258868
-0.16414083 0.43523857 0.13269425
-0.16410396 0.43540835 0.13279981
-0.16406710 0.43557813 0.13290537
-0.16403023 0.43574791 0.13301094
-0.16399337 0.43591768 0.13311650
-0.16395650 0.43608746 0.13322206
-0.16391964 0.43625724 0.13332762
-0.16388277 0.43642702 0.13343319
-0.16384591 0.43659680 0.13353875
-0.16380904 0.43676658 0.13364431
-0.16377218 0.43693635 0.13374988
-0.16373531 0.43710613 0.13385544
-0.16369845 0.43727591 0.13396100
-0.16366158 0.43744569 0.13406657
-0.16362472 0.43761547 0.13417213
-0.16358785 0.43778525 0.13427769
-0.16355099 0.43795502 0.13438325
-0.16351412 0.43812480 0.13448882
-0.16347726 0.43829458 0.13459438
-0.16344039 0.43846436 0.13469994
-0.16340353 0.43863414 0.13480551
-0.16336666 0.43880392 0.13491107
-0.16332980 0.43897369 0.13501663
-0.16329293 0.43914347 0.13512220
-0.16325607 0.43931325 0.13522776
-0.16321920 0.43948303 0.13533332
-0.16318234 0.43965281 0.13543888
-0.16314547 0.43982259 0.13554445
-0.16310861 0.43999236 0.13565001
-0.16307174 0.44016214 0.13575557
-0.16303488 0.44033192 0.13586114
-0.16299801 0.44050170 0.13596670
-0.16296115 0.44067148 0.13607226
-0.16292428 0.44084125 0.13617782
-0.16288742 0.44101103 0.13628339
-0.16285055 0.44118081 0.13638895
-0.16281369 0.44135059 0.13649451
-0.16277682 0.44152037 0.13660008
-0.16273996 0.44169015 0.13670564
-0.16270309 0.44185992 0.13681120
-0.16266623 0.44202970 0.13691676
-0.16262936 0.44219948 0.13702233
-0.16259250 0.44236926 0.13712789
-0.16255563 0.44253904 0.13723345
-0.16251877 0.44270882 0.13733902
-0.16248190 0.44287859 0.13744458
-0.16244504 0.44304837 0.13755014
-0.16240817 0.44321815 0.13765570
-0.16237131 0.44338793 0.13776127
-0.16233444 0.44355771 0.13786683
-0.16229758 0.44372749 0.13797239
-0.16226071 0.44389726 0.13807796
-0.16222385 0.44406704 0.13818352
-0.16218698 0.44423682 0.13828908
-0.16215012 0.44440660 0.13839465
-0.16211325 0.44457638 0.13850021
-0.16207639 0.44474616 0.13860577
-0.16203952 0.44491593 0.13871133
-0.16200266 0.44508571 0.13881690
-0.16196579 0.44525549 0.13892246
-0.16192893 0.44542527 0.13902802
-0.16189206 0.44559505 0.13913359
-0.16185520 0.44576482 0.13923915
-0.16181833 0.44593460 0.13934471
-0.16178147 0.44610438 0.13945027
-0.16174460 0.44627416 0.13955584
-0.16170774 0.44644394 0.13966140
-0.16167087 0.44661372 0.13976696
-0.16163401 0.44678349 0.13987253
-0.16159714 0.44695327 0.13997809
-0.16156028 0.44712305 0.14008365
-0.16152341 0.44729283 0.14018922
-0.16148655 0.44746261 0.14029478
-0.16144968 0.44763239 0.14040034
-0.16141282 0.44780216 0.14050590
-0.16137595 0.44797194 0.14061147
-0.16133909 0.44814172 0.14071703
-0.16130222 0.44831150 0.14082259
-0.16126536 0.44848128 0.14092816
-0.16122849 0.44865106 0.14103372
-0.16119163 0.44882083 0.14113928
-0.16115476 0.44899061 0.14124485
-0.16111790 0.44916039 0.14135041
-0.16108103 0.44933017 0.14145597
-0.16104417 0.44949995 0.14156153
-0.16100730 0.44966973 0.14166710
-0.16097044 0.44983950 0.14177266
-0.15333624 0.43374880 0.16816525
-0.15330112 0.43391053 0.16826581
-0.15326601 0.43407226 0.16836637
-0.15323089 0.43423399 0.16846692
-0.15319577 0.43439572 0.16856748
-0.15960643 0.45612130 0.14567849
-0.15956957 0.45629108 0.14578405
-0.15953270 0.45646086 0.14588961
-0.15949584 0.45663063 0.14599518
-0.15945897 0.45680041 0.14610074
-0.15942211 0.45697019 0.14620630
-0.15938524 0.45713997 0.14631187
-0.15934838 0.45730975 0.14641743
-0.15931151 0.45747953 0.14652299
-0.17962247 0.36235883 0.08781600
-0.17968285 0.36272031 0.08758616
-0.17964599 0.36289009 0.08769172
-0.17960912 0.36305986 0.08779728
-0.17886138 0.36400299 0.09016116
-0.17882460 0.36417237 0.09026648
-0.17879586 0.36435780 0.09034403
-0.17874300 0.36449510 0.09050487
-0.17873034 0.36471264 0.09052693
-0.17870964 0.36491416 0.09057677
-0.17874524 0.36522833 0.09043223
-0.17870844 0.36539783 0.09053762
-0.17804097 0.36746294 0.09253878
-0.17804422 0.36771326 0.09250582
-0.17800744 0.36788264 0.09261114
-0.17791789 0.36818893 0.09287705
-0.17789711 0.36839077 0.09292708
-0.17788433 0.36860888 0.09294949
-0.17783954 0.36876203 0.09308245
-0.17780276 0.36893142 0.09318777
-0.17776598 0.36910082 0.09329310
-0.17776117 0.36933533 0.09328798
-0.17772438 0.36950475 0.09339332
-0.17768759 0.36967418 0.09349866
-0.17764282 0.36982730 0.09363160
-0.17760603 0.36999672 0.09373694
-0.17756126 0.37014982 0.09386987
-0.17752447 0.37031923 0.09397520
-0.17748769 0.37048864 0.09408054
-0.16819088 0.36667162 0.12485544
-0.16817008 0.36686463 0.12490634
-0.16813488 0.36702673 0.12500713
-0.16811407 0.36721979 0.12505806
-0.16808606 0.36739738 0.12513393
-0.16805086 0.36755950 0.12523473
-0.16800128 0.36769061 0.12538536
-0.17142146 0.38588399 0.11256830
-0.17140028 0.38608524 0.11261969
-0.17138670 0.38630347 0.11264473
-0.17132756 0.38642015 0.11282793
-0.17128361 0.38657066 0.11295841
-0.17124725 0.38673811 0.11306253
-0.17121090 0.38690555 0.11316664
-0.17118212 0.38708997 0.11324440
-0.17118367 0.38734231 0.11321685
-0.17118522 0.38759475 0.11318929
-0.17115642 0.38777929 0.11326712
-0.17115796 0.38803190 0.11323960
-0.17127341 0.38854039 0.11281637
-0.17126738 0.38877642 0.11281510
-0.17125375 0.38899548 0.11284018
-0.17124011 0.38921460 0.11286529
-0.17122647 0.38943376 0.11289044
-0.17122804 0.38968725 0.11286277
-0.17120679 0.38988943 0.11291432
-0.17115513 0.39002304 0.11307155
-0.17111867 0.39019094 0.11317595
-0.17106702 0.39032450 0.11333314
-0.17102298 0.39047522 0.11346390
-0.17098652 0.39064309 0.11356827
-0.17092731 0.39075943 0.11375174
-0.16729622 0.41976581 0.12305530
-0.16725935 0.41993559 0.12316087
-0.16722249 0.42010537 0.12326643
-0.16718562 0.42027515 0.12337199
-0.16714876 0.42044492 0.12347755
-0.16711189 0.42061470 0.12358312
-0.16707503 0.42078448 0.12368868
-0.16703816 0.42095426 0.12379424
-0.16700130 0.42112404 0.12389981
-0.16696443 0.42129382 0.12400537
-0.16692757 0.42146359 0.12411093
-0.16689070 0.42163337 0.12421649
-0.16633773 0.42418005 0.12579994
-0.16630086 0.42434982 0.12590550
-0.16626400 0.42451960 0.12601106
-0.16622713 0.42468938 0.12611663
-0.16619027 0.42485916 0.12622219
-0.16615340 0.42502894 0.12632775
-0.16611654 0.42519872 0.12643332
-0.16607967 0.42536849 0.12653888
-0.16604281 0.42553827 0.12664444
-0.16600594 0.42570805 0.12675001
-0.16596908 0.42587783 0.12685557
-0.16593221 0.42604761 0.12696113
-0.16589535 0.42621739 0.12706669
-0.16585848 0.42638716 0.12717226
-0.16582162 0.42655694 0.12727782
-0.16578475 0.42672672 0.12738338
-0.16574789 0.42689650 0.12748895
-0.16571102 0.42706628 0.12759451
-0.16567416 0.42723606 0.12770007
-0.16408896 0.43453652 0.13223928
-0.16405210 0.43470630 0.13234484
-0.16401523 0.43487608 0.13245040
-0.16397837 0.43504586 0.13255597
-0.16394150 0.43521564 0.13266153
-0.16390464 0.43538541 0.13276709
-0.16386777 0.43555519 0.13287266
-0.16383091 0.43572497 0.13297822
-0.16379404 0.43589475 0.13308378
-0.16375718 0.43606453 0.13318934
-0.16372031 0.43623430 0.13329491
-0.16368345 0.43640408 0.13340047
-0.16364658 0.43657386 0.13350603
-0.16360972 0.43674364 0.13361160
-0.16357285 0.43691342 0.13371716
-0.16353599 0.43708320 0.13382272
-0.16349912 0.43725297 0.13392828
-0.16346226 0.43742275 0.13403385
-0.16342539 0.43759253 0.13413941
-0.16338853 0.43776231 0.13424497
-0.16335166 0.43793209 0.13435054
-0.16331480 0.43810187 0.13445610
-0.16327793 0.43827164 0.13456166
-0.16324107 0.43844142 0.13466723
-0.16320420 0.43861120 0.13477279
-0.16316734 0.43878098 0.13487835
-0.16313047 0.43895076 0.13498391
-0.16309361 0.43912054 0.13508948
-0.16305674 0.43929031 0.13519504
-0.16301988 0.43946009 0.13530060
-0.16298301 0.43962987 0.13540617
-0.16294615 0.43979965 0.13551173
-0.16290928 0.43996943 0.13561729
-0.16287242 0.44013921 0.13572286
-0.16283555 0.44030898 0.13582842
-0.16279869 0.44047876 0.13593398
-0.16276182 0.44064854 0.13603954
-0.16272496 0.44081832 0.13614511
-0.16268809 0.44098810 0.13625067
-0.16265123 0.44115787 0.13635623
-0.16261436 0.44132765 0.13646180
-0.16257750 0.44149743 0.13656736
-0.16254063 0.44166721 0.13667292
-0.16250377 0.44183699 0.13677848
-0.16246690 0.44200677 0.13688405
-0.16243004 0.44217654 0.13698961
-0.16239317 0.44234632 0.13709517
-0.16235631 0.44251610 0.13720074
-0.16231944 0.44268588 0.13730630
-0.16228258 0.44285566 0.13741186
-0.16224571 0.44302544 0.13751742
-0.16220885 0.44319521 0.13762299
-0.16217198 0.44336499 0.13772855
-0.16213512 0.44353477 0.13783411
-0.16209825 0.44370455 0.13793968
-0.16206139 0.44387433 0.13804524
-0.16202452 0.44404411 0.13815080
-0.16198766 0.44421388 0.13825636
-0.16195079 0.44438366 0.13836193
-0.16191393 0.44455344 0.13846749
-0.16187706 0.44472322 0.13857305
-0.16184020 0.44489300 0.13867862
-0.16180333 0.44506278 0.13878418
-0.16176647 0.44523255 0.13888974
-0.16172960 0.44540233 0.13899531
-0.16169274 0.44557211 0.13910087
-0.16165587 0.44574189 0.13920643
-0.16161901 0.44591167 0.13931199
-0.16158214 0.44608144 0.13941756
-0.16154528 0.44625122 0.13952312
-0.16150841 0.44642100 0.13962868
-0.16147155 0.44659078 0.13973425
-0.16143468 0.44676056 0.13983981
-0.16139782 0.44693034 0.13994537
-0.16136095 0.44710011 0.14005093
-0.16132409 0.44726989 0.14015650
-0.16128722 0.44743967 0.14026206
-0.16125036 0.44760945 0.14036762
-0.16121349 0.44777923 0.14047319
-0.16117663 0.44794901 0.14057875
-0.16113976 0.44811878 0.14068431
-0.16110290 0.44828856 0.14078988
-0.16106603 0.44845834 0.14089544
-0.16102917 0.44862812 0.14100100
-0.16099230 0.44879790 0.14110656
-0.16095544 0.44896768 0.14121213
-0.16091857 0.44913745 0.14131769
-0.16088171 0.44930723 0.14142325
-0.16084484 0.44947701 0.14152882
-0.16080798 0.44964679 0.14163438
-0.16077111 0.44981657 0.14173994
-0.15311125 0.43388868 0.16823464
-0.15307614 0.43405041 0.16833520
-0.15304102 0.43421214 0.16843576
-0.15300590 0.43437387 0.16853632
-0.15937025 0.45626814 0.14575133
-0.15933338 0.45643792 0.14585690
-0.15929652 0.45660770 0.14596246
-0.15925965 0.45677748 0.14606802
-0.15922279 0.45694725 0.14617358
-0.15918592 0.45711703 0.14627915
-0.15914906 0.45728681 0.14638471
-0.15911219 0.45745659 0.14649027
-0.15907533 0.45762637 0.14659584
-0.17942327 0.36233591 0.08778330
-0.17948353 0.36269737 0.08755344
-0.17944666 0.36286715 0.08765900
-0.17940980 0.36303693 0.08776456
-0.17937293 0.36320671 0.08787013
-0.17933607 0.36337648 0.08797569
-0.17865911 0.36373070 0.09016204
-0.17869467 0.36404418 0.09001742
-0.17865789 0.36421360 0.09012276
-0.17850270 0.36487521 0.09057186
-0.17855429 0.36522154 0.09037178
-0.17851748 0.36539104 0.09047717
-0.17784216 0.36744006 0.09250614
-0.17782937 0.36765797 0.09252850
-0.17768228 0.36833541 0.09294971
-0.17766148 0.36853726 0.09299975
-0.17762470 0.36870664 0.09310506
-0.17758792 0.36887602 0.09321038
-0.17755913 0.36906166 0.09328807
-0.17754629 0.36927988 0.09331055
-0.17751749 0.36946558 0.09338828
-0.17748071 0.36963500 0.09349362
-0.17744392 0.36980441 0.09359896
-0.17740713 0.36997383 0.09370430
-0.17737034 0.37014325 0.09380964
-0.17732558 0.37029634 0.09394256
-0.17729677 0.37048209 0.09402031
-0.17725201 0.37063516 0.09415322
-0.16801496 0.36668064 0.12477432
-0.16798696 0.36685820 0.12485016
-0.16795894 0.36703577 0.12492602
-0.16793093 0.36721336 0.12500189
-0.16791729 0.36742198 0.12502786
-0.16788209 0.36758412 0.12512867
-0.16782533 0.36769972 0.12530429
-0.17125209 0.38542522 0.11248600
-0.17124606 0.38566014 0.11248465
-0.17123246 0.38587825 0.11250969
-0.17122644 0.38611336 0.11250832
-0.17120524 0.38631470 0.11255970
-0.17116128 0.38646526 0.11269022
-0.17109460 0.38656498 0.11289978
-0.17105824 0.38673244 0.11300390
-0.17101430 0.38688293 0.11313437
-0.17094916 0.38723481 0.11331625
-0.17095822 0.38750413 0.11326242
-0.17095214 0.38773966 0.11326117
-0.17093848 0.38795821 0.11328635
-0.17109164 0.38855184 0.11273124
-0.17107799 0.38877084 0.11275635
-0.17107952 0.38902409 0.11272860
-0.17106585 0.38924323 0.11275372
-0.17106738 0.38949667 0.11272602
-0.17104611 0.38969883 0.11277756
-0.17101724 0.38988390 0.11285552
-0.17098078 0.39005183 0.11295993
-0.17092155 0.39016826 0.11314359
-0.17086992 0.39030182 0.11330079
-0.17082589 0.39045254 0.11343155
-0.17078186 0.39060324 0.11356229
-0.17072268 0.39071958 0.11374576
-0.16702316 0.42008243 0.12323371
-0.16698630 0.42025221 0.12333927
-0.16694943 0.42042199 0.12344484
-0.16691257 0.42059176 0.12355040
-0.16687570 0.42076154 0.12365596
-0.16683884 0.42093132 0.12376153
-0.16680197 0.42110110 0.12386709
-0.16676511 0.42127088 0.12397265
-0.16672824 0.42144066 0.12407821
-0.16669138 0.42161043 0.12418378
-0.16665451 0.42178021 0.12428934
-0.16617527 0.42398733 0.12566166
-0.16613840 0.42415711 0.12576722
-0.16610154 0.42432689 0.12587278
-0.16606467 0.42449666 0.12597835
-0.16602781 0.42466644 0.12608391
-0.16599094 0.42483622 0.12618947
-0.16595408 0.42500600 0.12629504
-0.16591721 0.42517578 0.12640060
-0.16588035 0.42534556 0.12650616
-0.16584348 0.42551533 0.12661172
-0.16580662 0.42568511 0.12671729
-0.16576975 0.42585489 0.12682285
-0.16573289 0.42602467 0.12692841
-0.16569602 0.42619445 0.12703398
-0.16565916 0.42636423 0.12713954
-0.16562229 0.42653400 0.12724510
-0.16558543 0.42670378 0.12735067
-0.16554856 0.42687356 0.12745623
-0.16551170 0.42704334 0.12756179
-0.16547483 0.42721312 0.12766735
-0.16543797 0.42738290 0.12777292
-0.16385277 0.43468336 0.13231212
-0.16381591 0.43485314 0.13241769
-0.16377904 0.43502292 0.13252325
-0.16374218 0.43519270 0.13262881
-0.16370531 0.43536247 0.13273437
-0.16366845 0.43553225 0.13283994
-0.16363158 0.43570203 0.13294550
-0.16359472 0.43587181 0.13305106
-0.16355785 0.43604159 0.13315663
-0.16352099 0.43621137 0.13326219
-0.16348412 0.43638114 0.13336775
-0.16344726 0.43655092 0.13347331
-0.16341039 0.43672070 0.13357888
-0.16337353 0.43689048 0.13368444
-0.16333666 0.43706026 0.13379000
-0.16329980 0.43723004 0.13389557
-0.16326293 0.43739982 0.13400113
-0.16322607 0.43756959 0.13410669
-0.16318920 0.43773937 0.13421226
-0.16315234 0.43790915 0.13431782
-0.16311547 0.43807893 0.13442338
-0.16307861 0.43824871 0.13452894
-0.16304174 0.43841849 0.13463451
-0.16300488 0.43858826 0.13474007
-0.16296801 0.43875804 0.13484563
-0.16293115 0.43892782 0.13495120
-0.16289428 0.43909760 0.13505676
-0.16285742 0.43926738 0.13516232
-0.16282055 0.43943716 0.13526789
-0.16278369 0.43960693 0.13537345
-0.16274682 0.43977671 0.13547901
-0.16270996 0.43994649 0.13558457
-0.16267309 0.44011627 0.13569014
-0.16263623 0.44028605 0.13579570
-0.16259936 0.44045583 0.13590126
-0.16256250 0.44062560 0.13600683
-0.16252564 0.44079538 0.13611239
-0.16248877 0.44096516 0.13621795
-0.16245191 0.44113494 0.13632351
-0.16241504 0.44130472 0.13642908
-0.16237818 0.44147449 0.13653464
-0.16234131 0.44164427 0.13664020
-0.16230445 0.44181405 0.13674577
-0.16226758 0.44198383 0.13685133
-0.16223072 0.44215361 0.13695689
-0.16219385 0.44232339 0.13706246
-0.16215699 0.44249316 0.13716802
-0.16212012 0.44266294 0.13727358
-0.16208326 0.44283272 0.13737914
-0.16204639 0.44300250 0.13748471
-0.16200953 0.44317228 0.13759027
-0.16197266 0.44334206 0.13769583
-0.16193580 0.44351183 0.13780140
-0.16189893 0.44368161 0.13790696
-0.16186207 0.44385139 0.13801252
-0.16182520 0.44402117 0.13811808
-0.16178834 0.44419095 0.13822365
-0.16175147 0.44436073 0.13832921
-0.16171461 0.44453050 0.13843477
-0.16167774 0.44470028 0.13854034
-0.16164088 0.44487006 0.13864590
-0.16160401 0.44503984 0.13875146
-0.16156715 0.44520962 0.13885702
-0.16153028 0.44537940 0.13896259
-0.16149342 0.44554917 0.13906815
-0.16145655 0.44571895 0.13917371
-0.16141969 0.44588873 0.13927928
-0.16138282 0.44605851 0.13938484
-0.16134596 0.44622829 0.13949040
-0.16130909 0.44639806 0.13959596
-0.16127223 0.44656784 0.13970153
-0.16123536 0.44673762 0.13980709
-0.16119850 0.44690740 0.13991265
-0.16116163 0.44707718 0.14001822
-0.16112477 0.44724696 0.14012378
-0.16108790 0.44741673 0.14022934
-0.16105104 0.44758651 0.14033491
-0.16101417 0.44775629 0.14044047
-0.16097731 0.44792607 0.14054603
-0.16094044 0.44809585 0.14065159
-0.16090358 0.44826563 0.14075716
-0.16086671 0.44843540 0.14086272
-0.16082985 0.44860518 0.14096828
-0.16079298 0.44877496 0.14107385
-0.16075612 0.44894474 0.14117941
-0.16071925 0.44911452 0.14128497
-0.16068239 0.44928430 0.14139054
-0.16064552 0.44945407 0.14149610
-0.16060866 0.44962385 0.14160166
-0.16057179 0.44979363 0.14170722
-0.16045620 0.44974023 0.14209076
-0.15288626 0.43402856 0.16830403
-0.15285114 0.43419029 0.16840459
-0.15913406 0.45641498 0.14582418
-0.15909719 0.45658476 0.14592974
-0.15906033 0.45675454 0.14603530
-0.15902346 0.45692432 0.14614087
-0.15898660 0.45709410 0.14624643
-0.15894973 0.45726387 0.14635199
-0.15891287 0.45743365 0.14645756
-0.15887600 0.45760343 0.14656312
-0.15876840 0.45756646 0.14691899
-0.17922406 0.36231298 0.08775060
-0.17928420 0.36267443 0.08752072
-0.17924733 0.36284421 0.08762628
-0.17921047 0.36301399 0.08773184
-0.17917360 0.36318377 0.08783741
-0.17913674 0.36335354 0.08794297
-0.17909987 0.36352332 0.08804853
-0.17851649 0.36381986 0.08993499
-0.17851183 0.36405336 0.08992917
-0.17850716 0.36428693 0.08992339
-0.17744667 0.36848189 0.09302238
-0.17740990 0.36865125 0.09312768
-0.17738110 0.36883687 0.09320536
-0.17735229 0.36902251 0.09328305
-0.17733146 0.36922444 0.09333313
-0.17731062 0.36942640 0.09338324
-0.17727383 0.36959581 0.09348857
-0.17723705 0.36976522 0.09359391
-0.17720822 0.36995094 0.09367165
-0.17717144 0.37012036 0.09377699
-0.17713465 0.37028978 0.09388233
-0.17709786 0.37045920 0.09398766
-0.17706108 0.37062862 0.09409300
-0.17696861 0.37068357 0.09439132
-0.16783184 0.36667419 0.12471813
-0.16781100 0.36686722 0.12476904
-0.16778298 0.36704481 0.12484491
-0.16776931 0.36725341 0.12487087
-0.16773410 0.36741555 0.12497168
-0.16769173 0.36756221 0.12509743
-0.17090132 0.38456288 0.11303548
-0.17100107 0.38503294 0.11266587
-0.17105557 0.38540260 0.11245374
-0.17104194 0.38562065 0.11247873
-0.17102830 0.38583874 0.11250376
-0.17101466 0.38605692 0.11252877
-0.17100102 0.38627514 0.11255380
-0.17096465 0.38644263 0.11265794
-0.17092828 0.38661012 0.11276208
-0.17086165 0.38670982 0.11297163
-0.17074176 0.38793557 0.11325406
-0.17090985 0.38856330 0.11264611
-0.17090375 0.38879942 0.11264474
-0.17090524 0.38905270 0.11261701
-0.17091431 0.38932322 0.11256281
-0.17088544 0.38950824 0.11264080
-0.17085656 0.38969330 0.11271875
-0.17082769 0.38987834 0.11279677
-0.17078364 0.39002914 0.11292757
-0.17072443 0.39014557 0.11311123
-0.17067282 0.39027914 0.11326844
-0.17060608 0.39037838 0.11347832
-0.17056207 0.39052907 0.11360905
-0.17051049 0.39066255 0.11376614
-0.17047405 0.39083038 0.11387049
-0.16678697 0.42022927 0.12330655
-0.16675010 0.42039905 0.12341212
-0.16671324 0.42056883 0.12351768
-0.16667637 0.42073860 0.12362324
-0.16663951 0.42090838 0.12372881
-0.16660264 0.42107816 0.12383437
-0.16656578 0.42124794 0.12393993
-0.16652891 0.42141772 0.12404549
-0.16649205 0.42158750 0.12415106
-0.16645518 0.42175727 0.12425662
-0.16641832 0.42192705 0.12436218
-0.16597594 0.42396439 0.12562894
-0.16593907 0.42413417 0.12573450
-0.16590221 0.42430395 0.12584006
-0.16586534 0.42447373 0.12594563
-0.16582848 0.42464350 0.12605119
-0.16579161 0.42481328 0.12615675
-0.16575475 0.42498306 0.12626232
-0.16571788 0.42515284 0.12636788
-0.16568102 0.42532262 0.12647344
-0.16564415 0.42549240 0.12657901
-0.16560729 0.42566217 0.12668457
-0.16557042 0.42583195 0.12679013
-0.16553356 0.42600173 0.12689569
-0.16549669 0.42617151 0.12700126
-0.16545983 0.42634129 0.12710682
-0.16542296 0.42651107 0.12721238
-0.16538610 0.42668084 0.12731795
-0.16534923 0.42685062 0.12742351
-0.16531237 0.42702040 0.12752907
-0.16527550 0.42719018 0.12763463
-0.16523864 0.42735996 0.12774020
-0.16357971 0.43499998 0.13249053
-0.16354285 0.43516976 0.13259609
-0.16350598 0.43533954 0.13270166
-0.16346912 0.43550932 0.13280722
-0.16343225 0.43567909 0.13291278
-0.16339539 0.43584887 0.13301834
-0.16335852 0.43601865 0.13312391
-0.16332166 0.43618843 0.13322947
-0.16328479 0.43635821 0.13333503
-0.16324793 0.43652798 0.13344060
-0.16321106 0.43669776 0.13354616
-0.16317420 0.43686754 0.13365172
-0.16313733 0.43703732 0.13375729
-0.16310047 0.43720710 0.13386285
-0.16306360 0.43737688 0.13396841
-0.16302674 0.43754665 0.13407397
-0.16298987 0.43771643 0.13417954
-0.16295301 0.43788621 0.13428510
-0.16291614 0.43805599 0.13439066
-0.16287928 0.43822577 0.13449622
-0.16284241 0.43839555 0.13460179
-0.16280555 0.43856532 0.13470735
-0.16276868 0.43873510 0.13481291
-0.16273182 0.43890488 0.13491848
-0.16269495 0.43907466 0.13502404
-0.16265809 0.43924444 0.13512960
-0.16262122 0.43941422 0.13523517
-0.16258436 0.43958399 0.13534073
-0.16254749 0.43975377 0.13544629
-0.16251063 0.43992355 0.13555185
-0.16247376 0.44009333 0.13565742
-0.16243690 0.44026311 0.13576298
-0.16240003 0.44043289 0.13586854
-0.16236317 0.44060266 0.13597411
-0.16232630 0.44077244 0.13607967
-0.16228944 0.44094222 0.13618523
-0.16225257 0.44111200 0.13629079
