ply
format ascii 1.0
element vertex 1368
property float x
property float y
property float z
end_header
-0.01417801 -0.65877450 0.90812812
-0.01422555 -0.65883567 0.90794069
-0.01427308 -0.65889683 0.90775326
-0.01432062 -0.65895800 0.90756583
-0.01436833 -0.65898807 0.90736551
-0.01441624 -0.65898703 0.90715234
-0.01446396 -0.65901708 0.90695207
-0.01451200 -0.65898503 0.90672615
-0.01456022 -0.65892185 0.90648744
-0.01460756 -0.65901404 0.90631293
-0.01465489 -0.65910629 0.90613841
-0.01470173 -0.65929179 0.90600229
-0.01474893 -0.65941513 0.90584050
-0.01479630 -0.65950741 0.90566589
-0.01484383 -0.65956857 0.90547848
-0.01489103 -0.65969199 0.90531663
-0.01493857 -0.65975316 0.90512919
-0.01516921 -0.66155744 0.90480424
-0.01546105 -0.66051949 0.90310544
-0.01550833 -0.66064300 0.90294330
-0.01555587 -0.66070418 0.90275582
-0.01612652 -0.66140715 0.90049353
-0.01669812 -0.66167284 0.89805752
-0.01674509 -0.66198373 0.89796947
-0.01679255 -0.66207614 0.89779448
-0.01683995 -0.66219981 0.89763187
-0.01688748 -0.66226097 0.89744443
-0.01693520 -0.66222836 0.89721985
-0.01816989 -0.64306143 0.88430335
-0.01821587 -0.64312059 0.88412206
-0.01826185 -0.64323842 0.88396346
-0.01830786 -0.64332687 0.88379349
-0.01835385 -0.64341538 0.88362350
-0.01839983 -0.64347455 0.88344217
-0.01844577 -0.64347509 0.88323824
-0.01954865 -0.66534082 0.88681761
-0.01959623 -0.66543333 0.88664213
-0.01964381 -0.66552589 0.88646664
-0.01969157 -0.66568123 0.88631480
-0.01973916 -0.66577381 0.88613926
-0.02083923 -0.66885346 0.88244683
-0.02088688 -0.66891477 0.88225895
-0.02093452 -0.66897608 0.88207107
-0.02098217 -0.66903739 0.88188320
-0.02102982 -0.66909871 0.88169532
-0.02107746 -0.66916002 0.88150744
-0.02112511 -0.66922133 0.88131957
-0.02117276 -0.66928264 0.88113169
-0.02122041 -0.66934395 0.88094381
-0.02126805 -0.66940526 0.88075593
-0.02131570 -0.66946657 0.88056806
-0.02136335 -0.66952788 0.88038018
-0.02141100 -0.66958919 0.88019230
-0.02145864 -0.66965051 0.88000442
-0.02150629 -0.66971182 0.87981655
-0.02155394 -0.66977313 0.87962867
-0.02160158 -0.66983444 0.87944079
-0.02164923 -0.66989575 0.87925291
-0.02169688 -0.66995706 0.87906504
-0.02174453 -0.67001837 0.87887716
-0.02179217 -0.67007968 0.87868928
-0.02198213 -0.64009621 0.86621950
-0.02202752 -0.64015462 0.86604053
-0.02207291 -0.64021302 0.86586156
-0.02211830 -0.64027143 0.86568259
-0.02216368 -0.64032983 0.86550362
-0.02220907 -0.64038824 0.86532464
-0.02225446 -0.64044664 0.86514567
-0.02229985 -0.64050504 0.86496670
-0.02234524 -0.64056345 0.86478773
-0.02239063 -0.64062185 0.86460876
-0.02243601 -0.64068026 0.86442979
-0.02248140 -0.64073866 0.86425082
-0.02252679 -0.64079707 0.86407185
-0.02257218 -0.64085547 0.86389288
-0.02261757 -0.64091388 0.86371391
-0.02266296 -0.64097228 0.86353494
-0.02270835 -0.64103069 0.86335597
-0.02275373 -0.64108909 0.86317700
-0.02279912 -0.64114749 0.86299803
-0.02284451 -0.64120590 0.86281906
-0.02288990 -0.64126430 0.86264009
-0.02293529 -0.64132271 0.86246111
-0.02298068 -0.64138111 0.86228214
-0.02302606 -0.64143952 0.86210317
-0.02307145 -0.64149792 0.86192420
-0.02311684 -0.64155633 0.86174523
-0.02316223 -0.64161473 0.86156626
-0.02320762 -0.64167314 0.86138729
-0.02325301 -0.64173154 0.86120832
-0.02329839 -0.64178994 0.86102935
-0.02334378 -0.64184835 0.86085038
-0.02338917 -0.64190675 0.86067141
-0.02343456 -0.64196516 0.86049244
-0.02347995 -0.64202356 0.86031347
-0.02352534 -0.64208197 0.86013450
-0.02357072 -0.64214037 0.85995553
-0.02361611 -0.64219878 0.85977656
-0.02366150 -0.64225718 0.85959758
-0.02370689 -0.64231559 0.85941861
-0.02375228 -0.64237399 0.85923964
-0.02379767 -0.64243239 0.85906067
-0.02384305 -0.64249080 0.85888170
-0.02388844 -0.64254920 0.85870273
-0.02393383 -0.64260761 0.85852376
-0.02397922 -0.64266601 0.85834479
-0.02469865 -0.67381966 0.86722876
-0.02474630 -0.67388097 0.86704088
-0.03682413 -0.65919450 0.80769610
-0.03764946 -0.68554894 0.81424888
-0.03769769 -0.68564206 0.81407071
-0.03774497 -0.68570290 0.81388428
-0.03779225 -0.68576374 0.81369785
-0.03783953 -0.68582458 0.81351141
-0.03788585 -0.68585313 0.81331676
-0.03793313 -0.68591396 0.81313034
-0.03797943 -0.68594256 0.81293573
-0.03802574 -0.68597115 0.81274114
-0.03807302 -0.68603198 0.81255474
-0.03812029 -0.68609281 0.81236833
-0.03816756 -0.68615364 0.81218193
-0.03821484 -0.68621447 0.81199552
-0.03826211 -0.68627530 0.81180912
-0.03830938 -0.68633613 0.81162271
-0.03835864 -0.68646149 0.81145253
-0.03840591 -0.68652233 0.81126611
-0.03845219 -0.68655089 0.81107159
-0.03849947 -0.68661173 0.81088517
-0.03854674 -0.68667256 0.81069876
-0.03859402 -0.68673339 0.81051235
-0.03864130 -0.68679423 0.81032593
-0.03868857 -0.68685506 0.81013952
-0.03873585 -0.68691589 0.80995310
-0.03878414 -0.68700902 0.80977472
-0.03883142 -0.68706986 0.80958830
-0.03887971 -0.68716305 0.80940990
-0.03892699 -0.68722389 0.80922347
-0.03897223 -0.68722006 0.80902104
-0.03901951 -0.68728090 0.80883462
-0.03906678 -0.68734173 0.80864821
-0.03911406 -0.68740256 0.80846179
-0.03916133 -0.68746340 0.80827538
-0.03920759 -0.68749191 0.80808102
-0.03925486 -0.68755274 0.80789462
-0.03930316 -0.68764590 0.80771614
-0.03935044 -0.68770673 0.80752972
-0.03939771 -0.68776756 0.80734331
-0.03944499 -0.68782840 0.80715689
-0.03949332 -0.68792157 0.80697837
-0.03953954 -0.68795007 0.80678406
-0.03958682 -0.68801090 0.80659765
-0.03963409 -0.68807173 0.80641124
-0.03968137 -0.68813257 0.80622482
-0.03972865 -0.68819340 0.80603841
-0.03977592 -0.68825423 0.80585199
-0.03982320 -0.68831507 0.80566558
-0.03987154 -0.68840826 0.80548699
-0.03991882 -0.68846910 0.80530056
-0.03996503 -0.68849757 0.80510634
-0.04001230 -0.68855840 0.80491993
-0.04005958 -0.68861923 0.80473351
-0.04010685 -0.68868007 0.80454710
-0.04015413 -0.68874090 0.80436068
-0.04020034 -0.68876935 0.80416652
-0.04024761 -0.68883018 0.80398011
-0.04029596 -0.68892340 0.80380144
-0.04034324 -0.68898424 0.80361503
-0.04039051 -0.68904507 0.80342861
-0.04043670 -0.68907351 0.80323449
-0.04048398 -0.68913434 0.80304809
-0.04053234 -0.68922757 0.80286937
-0.04057962 -0.68928840 0.80268296
-0.04062800 -0.68938165 0.80250422
-0.04067528 -0.68944248 0.80231780
-0.04072256 -0.68950332 0.80213137
-0.04076872 -0.68953174 0.80193730
-0.03991054 -0.66316601 0.79552610
-0.03995593 -0.66322441 0.79534713
-0.04000132 -0.66328282 0.79516816
-0.01351202 -0.65797722 0.90987887
-0.01355864 -0.65816254 0.90974346
-0.01360617 -0.65822371 0.90955604
-0.01365371 -0.65828487 0.90936862
-0.01370102 -0.65837710 0.90919416
-0.01374856 -0.65843827 0.90900673
-0.01379609 -0.65849943 0.90881930
-0.01384384 -0.65852952 0.90861892
-0.01389158 -0.65855961 0.90841856
-0.01393911 -0.65862077 0.90823115
-0.01398664 -0.65868193 0.90804373
-0.01403417 -0.65874309 0.90785631
-0.01408191 -0.65877316 0.90765601
-0.01412944 -0.65883432 0.90746860
-0.01417755 -0.65880224 0.90724258
-0.01422564 -0.65877021 0.90701663
-0.01427315 -0.65883135 0.90682928
-0.01432104 -0.65883033 0.90661625
-0.01436875 -0.65886036 0.90641608
-0.01441626 -0.65892149 0.90622876
-0.01446357 -0.65901373 0.90605425
-0.01451072 -0.65913704 0.90589253
-0.01455823 -0.65919818 0.90570518
-0.01460505 -0.65938370 0.90556897
-0.01465257 -0.65944485 0.90538158
-0.01469959 -0.65959933 0.90523251
-0.01474730 -0.65962936 0.90503233
-0.01526924 -0.66048908 0.90304687
-0.01531678 -0.66055025 0.90285941
-0.01536446 -0.66058026 0.90265930
-0.01588717 -0.66131556 0.90062243
-0.01593461 -0.66140795 0.90044750
-0.01598225 -0.66143792 0.90024749
-0.01602980 -0.66149910 0.90006002
-0.01607734 -0.66156027 0.89987255
-0.01645912 -0.66151890 0.89816147
-0.01650645 -0.66164245 0.89799899
-0.01655342 -0.66192209 0.89789850
-0.01660087 -0.66201449 0.89772352
-0.01664840 -0.66207565 0.89753611
-0.01669593 -0.66213680 0.89734871
-0.01674352 -0.66216670 0.89714892
-0.01679150 -0.66200925 0.89687500
-0.01717168 -0.66243580 0.89535178
-0.01721914 -0.66252816 0.89517673
-0.01726659 -0.66262058 0.89500168
-0.01731410 -0.66268172 0.89481435
-0.01778864 -0.66429579 0.89333089
-0.01783607 -0.66470243 0.89327744
-0.01788364 -0.66482659 0.89311411
-0.01793843 -0.64294353 0.88441663
-0.01798441 -0.64300269 0.88423535
-0.01803038 -0.64309118 0.88406542
-0.01807636 -0.64315034 0.88388413
-0.01812233 -0.64326818 0.88372552
-0.01816833 -0.64335663 0.88355552
-0.01821429 -0.64338651 0.88336290
-0.01826026 -0.64341633 0.88317028
-0.01926152 -0.66493723 0.88703876
-0.01930947 -0.66524930 0.88694642
-0.01935705 -0.66534181 0.88677094
-0.01940468 -0.66546574 0.88660731
-0.01945233 -0.66558968 0.88644364
-0.01949998 -0.66571364 0.88627993
-0.01954763 -0.66583767 0.88611621
-0.01959516 -0.66589883 0.88592879
-0.01964173 -0.66555164 0.88558789
-0.01968916 -0.66558137 0.88538880
-0.01973665 -0.66564249 0.88520152
-0.02064699 -0.66882299 0.88238813
-0.02069464 -0.66888430 0.88220025
-0.02074229 -0.66894561 0.88201238
-0.02078993 -0.66900692 0.88182450
-0.02083758 -0.66906823 0.88163662
-0.02088523 -0.66912954 0.88144875
-0.02093287 -0.66919085 0.88126087
-0.02098052 -0.66925216 0.88107299
-0.02102817 -0.66931347 0.88088511
-0.02107582 -0.66937479 0.88069724
-0.02112346 -0.66943610 0.88050936
-0.02117111 -0.66949741 0.88032148
-0.02121876 -0.66955872 0.88013360
-0.02126641 -0.66962003 0.87994573
-0.02131405 -0.66968134 0.87975785
-0.02136170 -0.66974265 0.87956997
-0.02140935 -0.66980396 0.87938209
-0.02145699 -0.66986528 0.87919422
-0.02150464 -0.66992659 0.87900634
-0.02155229 -0.66998790 0.87881846
-0.02179901 -0.64006718 0.86616358
-0.02184440 -0.64012559 0.86598461
-0.02188979 -0.64018399 0.86580564
-0.02193518 -0.64024240 0.86562667
-0.02198056 -0.64030080 0.86544770
-0.02202595 -0.64035921 0.86526873
-0.02207134 -0.64041761 0.86508976
-0.02211673 -0.64047601 0.86491079
-0.02216212 -0.64053442 0.86473182
-0.02220751 -0.64059282 0.86455285
-0.02225289 -0.64065123 0.86437388
-0.02229828 -0.64070963 0.86419491
-0.02234367 -0.64076804 0.86401594
-0.02238906 -0.64082644 0.86383697
-0.02243445 -0.64088485 0.86365800
-0.02247984 -0.64094325 0.86347902
-0.02252522 -0.64100166 0.86330005
-0.02257061 -0.64106006 0.86312108
-0.02261600 -0.64111846 0.86294211
-0.02266139 -0.64117687 0.86276314
-0.02270678 -0.64123527 0.86258417
-0.02275217 -0.64129368 0.86240520
-0.02279755 -0.64135208 0.86222623
-0.02284294 -0.64141049 0.86204726
-0.02288833 -0.64146889 0.86186829
-0.02293372 -0.64152730 0.86168932
-0.02297911 -0.64158570 0.86151035
-0.02302450 -0.64164411 0.86133138
-0.02306988 -0.64170251 0.86115241
-0.02311527 -0.64176091 0.86097344
-0.02316066 -0.64181932 0.86079447
-0.02320605 -0.64187772 0.86061549
-0.02325144 -0.64193613 0.86043652
-0.02329683 -0.64199453 0.86025755
-0.02334222 -0.64205294 0.86007858
-0.02338760 -0.64211134 0.85989961
-0.02343299 -0.64216975 0.85972064
-0.02347838 -0.64222815 0.85954167
-0.02352377 -0.64228656 0.85936270
-0.02356916 -0.64234496 0.85918373
-0.02361455 -0.64240336 0.85900476
-0.02365993 -0.64246177 0.85882579
-0.02370532 -0.64252017 0.85864682
-0.02445877 -0.67372788 0.86735794
-0.02450642 -0.67378919 0.86717006
-0.02455406 -0.67385050 0.86698219
-0.02460171 -0.67391181 0.86679431
-0.02464936 -0.67397312 0.86660643
-0.03741237 -0.68549014 0.81438533
-0.03746249 -0.68564764 0.81422363
-0.03750978 -0.68570849 0.81403717
-0.03755706 -0.68576934 0.81385071
-0.03760435 -0.68583019 0.81366425
-0.03765451 -0.68598780 0.81350244
-0.03770180 -0.68604865 0.81331595
-0.03774910 -0.68610951 0.81312946
-0.03779158 -0.68600910 0.81290205
-0.03783789 -0.68603770 0.81270744
-0.03788325 -0.68603399 0.81250466
-0.03793053 -0.68609482 0.81231825
-0.03797683 -0.68612340 0.81212369
-0.03802411 -0.68618423 0.81193728
-0.03807236 -0.68627732 0.81175901
-0.03812061 -0.68637042 0.81158071
-0.03816984 -0.68649584 0.81141052
-0.03821712 -0.68655668 0.81122408
-0.03826441 -0.68661753 0.81103764
-0.03831169 -0.68667837 0.81085119
-0.03835897 -0.68673921 0.81066475
-0.03840626 -0.68680005 0.81047831
-0.03845354 -0.68686090 0.81029187
-0.03850082 -0.68692174 0.81010543
-0.03855011 -0.68704716 0.80993506
-0.03859739 -0.68710801 0.80974860
-0.03864468 -0.68716886 0.80956214
-0.03869197 -0.68722971 0.80937568
-0.03873926 -0.68729055 0.80918922
-0.03878654 -0.68735140 0.80900276
-0.03883383 -0.68741225 0.80881630
-0.03888010 -0.68744079 0.80862187
-0.03892739 -0.68750164 0.80843542
-0.03897365 -0.68753016 0.80824102
-0.03901991 -0.68755869 0.80804663
-0.03906719 -0.68761953 0.80786020
-0.03911550 -0.68771269 0.80768169
-0.03916382 -0.68780586 0.80750317
-0.03921110 -0.68786671 0.80731672
-0.03925839 -0.68792755 0.80713026
-0.03930671 -0.68802074 0.80695170
-0.03935400 -0.68808158 0.80676524
-0.03940128 -0.68814243 0.80657878
-0.03944753 -0.68817094 0.80638446
-0.03949481 -0.68823178 0.80619801
-0.03954210 -0.68829263 0.80601156
-0.03958938 -0.68835347 0.80582511
-0.03963562 -0.68838196 0.80563083
-0.03968395 -0.68847516 0.80545221
-0.03973018 -0.68850365 0.80525795
-0.03977746 -0.68856449 0.80507151
-0.03982475 -0.68862533 0.80488507
-0.03987203 -0.68868617 0.80469863
-0.03992038 -0.68877939 0.80451996
-0.03996660 -0.68880786 0.80432574
-0.04001388 -0.68886870 0.80413930
-0.04006116 -0.68892954 0.80395286
-0.04010845 -0.68899039 0.80376642
-0.04015573 -0.68905123 0.80357998
-0.04020301 -0.68911207 0.80339354
-0.04024921 -0.68914052 0.80319939
-0.04029649 -0.68920136 0.80301296
-0.04034595 -0.68932700 0.80284190
-0.04039323 -0.68938785 0.80265545
-0.04044052 -0.68944869 0.80246900
-0.04048890 -0.68954195 0.80229021
-0.04053619 -0.68960280 0.80210375
-0.04058018 -0.68956639 0.80189436
-0.04062527 -0.68956234 0.80169265
-0.03977281 -0.66319538 0.79529122
-0.03981820 -0.66325379 0.79511225
-0.01332197 -0.65772963 0.90972936
-0.01336782 -0.65800798 0.90963294
-0.01341511 -0.65810013 0.90945852
-0.01346264 -0.65816129 0.90927113
-0.01351016 -0.65822244 0.90908373
-0.01355769 -0.65828359 0.90889634
-0.01360522 -0.65834475 0.90870894
-0.01365274 -0.65840590 0.90852154
-0.01370070 -0.65840496 0.90830830
-0.01374822 -0.65846611 0.90812093
-0.01379594 -0.65849623 0.90792065
-0.01384346 -0.65855738 0.90773328
-0.01389141 -0.65855640 0.90752015
-0.01393913 -0.65858645 0.90731992
-0.01398706 -0.65858545 0.90710685
-0.01403476 -0.65861554 0.90690668
-0.01408227 -0.65867667 0.90671936
-0.01412997 -0.65870675 0.90651922
-0.01417747 -0.65876787 0.90633192
-0.01422516 -0.65879795 0.90613181
-0.01427266 -0.65885907 0.90594451
-0.01431979 -0.65898230 0.90578280
-0.01436729 -0.65904343 0.90559549
-0.01441480 -0.65910456 0.90540817
-0.01446230 -0.65916569 0.90522086
-0.01450927 -0.65932008 0.90507182
-0.01455766 -0.65922579 0.90482074
-0.01507804 -0.66033402 0.90293765
-0.01512558 -0.66039518 0.90275022
-0.01517473 -0.66011371 0.90242379
-0.01569548 -0.66125395 0.90055131
-0.01574289 -0.66134633 0.90037639
-0.01579056 -0.66137630 0.90017639
-0.01583798 -0.66146869 0.90000145
-0.01588553 -0.66152987 0.89981398
-0.01593330 -0.66152861 0.89960151
-0.01612395 -0.66161715 0.89878940
-0.01626746 -0.66148851 0.89810295
-0.01631477 -0.66161207 0.89794046
-0.01636228 -0.66167320 0.89775313
-0.01640962 -0.66179677 0.89759059
-0.01645723 -0.66182666 0.89739085
-0.01650474 -0.66188780 0.89720350
-0.01655225 -0.66194893 0.89701617
-0.01660013 -0.66185400 0.89676706
-0.01664778 -0.66185270 0.89655509
-0.01669542 -0.66185140 0.89634316
-0.01674291 -0.66191251 0.89615590
-0.01679020 -0.66206727 0.89600558
-0.01683770 -0.66212839 0.89581829
-0.01688513 -0.66222072 0.89564330
-0.01693251 -0.66234429 0.89548057
-0.01698002 -0.66240542 0.89529325
-0.01702740 -0.66252906 0.89513049
-0.01707491 -0.66259020 0.89494316
-0.01712242 -0.66265133 0.89475582
-0.01717000 -0.66268117 0.89455624
-0.01721750 -0.66274230 0.89436892
-0.01726456 -0.66311622 0.89430390
-0.01731201 -0.66323999 0.89414095
-0.01735929 -0.66352032 0.89403907
-0.01740669 -0.66370686 0.89390047
-0.01745418 -0.66383075 0.89373737
-0.01750169 -0.66395465 0.89357423
-0.01754910 -0.66417275 0.89344769
-0.01759642 -0.66454790 0.89338210
-0.01764393 -0.66473486 0.89324320
-0.01769149 -0.66489041 0.89309205
-0.01773908 -0.66498313 0.89291646
-0.01779892 -0.64300262 0.88419007
-0.01784491 -0.64303245 0.88399744
-0.01789087 -0.64312094 0.88382750
-0.01793685 -0.64318010 0.88364621
-0.01798279 -0.64329794 0.88348756
-0.01802879 -0.64332776 0.88329495
-0.01807478 -0.64335758 0.88310234
-0.01883312 -0.66519731 0.88814309
-0.01902244 -0.66484574 0.88716752
-0.01907026 -0.66512637 0.88706334
-0.01911785 -0.66525028 0.88689975
-0.01916547 -0.66537421 0.88673613
-0.01921308 -0.66549814 0.88657247
-0.01926071 -0.66562209 0.88640878
-0.01930834 -0.66574611 0.88624507
-0.01935587 -0.66580727 0.88605765
-0.01940340 -0.66586843 0.88587024
-0.01945056 -0.66574106 0.88561198
-0.01949760 -0.66558238 0.88534208
-0.01954504 -0.66561211 0.88514301
-0.01959253 -0.66567323 0.88495572
-0.01963988 -0.66567156 0.88474492
-0.02040499 -0.66813048 0.88229552
-0.02045477 -0.66879251 0.88232944
-0.02050242 -0.66885382 0.88214156
-0.02055006 -0.66891514 0.88195368
-0.02059771 -0.66897645 0.88176581
-0.02064536 -0.66903776 0.88157793
-0.02069300 -0.66909907 0.88139005
-0.02074065 -0.66916038 0.88120217
-0.02078830 -0.66922169 0.88101430
-0.02083595 -0.66928300 0.88082642
-0.02088359 -0.66934431 0.88063854
-0.02093124 -0.66940562 0.88045066
-0.02097889 -0.66946693 0.88026279
-0.02102653 -0.66952825 0.88007491
-0.02107418 -0.66958956 0.87988703
-0.02112183 -0.66965087 0.87969915
-0.02116948 -0.66971218 0.87951128
-0.02121712 -0.66977349 0.87932340
-0.02126477 -0.66983480 0.87913552
-0.02131242 -0.66989611 0.87894764
-0.02136007 -0.66995742 0.87875977
-0.02166128 -0.64009656 0.86592870
-0.02170667 -0.64015496 0.86574973
-0.02175205 -0.64021337 0.86557076
-0.02179744 -0.64027177 0.86539179
-0.02184283 -0.64033018 0.86521282
-0.02188822 -0.64038858 0.86503384
-0.02193361 -0.64044698 0.86485488
-0.02197900 -0.64050539 0.86467590
-0.02202438 -0.64056379 0.86449693
-0.02206977 -0.64062220 0.86431796
-0.02211516 -0.64068060 0.86413899
-0.02216055 -0.64073901 0.86396002
-0.02220594 -0.64079741 0.86378105
-0.02225133 -0.64085582 0.86360208
-0.02229672 -0.64091422 0.86342311
-0.02234210 -0.64097263 0.86324414
-0.02238749 -0.64103103 0.86306517
-0.02243288 -0.64108943 0.86288620
-0.02247827 -0.64114784 0.86270723
-0.02252366 -0.64120624 0.86252826
-0.02256905 -0.64126465 0.86234929
-0.02261443 -0.64132305 0.86217032
-0.02265982 -0.64138146 0.86199134
-0.02270521 -0.64143986 0.86181237
-0.02275060 -0.64149827 0.86163340
-0.02279599 -0.64155667 0.86145443
-0.02284138 -0.64161508 0.86127546
-0.02288676 -0.64167348 0.86109649
-0.02293215 -0.64173188 0.86091752
-0.02297754 -0.64179029 0.86073855
-0.02302293 -0.64184869 0.86055958
-0.02306832 -0.64190710 0.86038061
-0.02311371 -0.64196550 0.86020164
-0.02315909 -0.64202391 0.86002267
-0.02320448 -0.64208231 0.85984370
-0.02324987 -0.64214072 0.85966473
-0.02329526 -0.64219912 0.85948576
-0.02334065 -0.64225753 0.85930679
-0.02421890 -0.67363609 0.86748712
-0.02426654 -0.67369740 0.86729925
-0.02431419 -0.67375871 0.86711137
-0.02436184 -0.67382003 0.86692349
-0.02440949 -0.67388134 0.86673561
-0.02445713 -0.67394265 0.86654774
-0.02450478 -0.67400396 0.86635986
-0.02455243 -0.67406527 0.86617198
-0.03717341 -0.68536679 0.81450524
-0.03722443 -0.68555655 0.81435184
-0.03727172 -0.68561740 0.81416538
-0.03731900 -0.68567825 0.81397892
-0.03736629 -0.68573910 0.81379246
-0.03741358 -0.68579995 0.81360600
-0.03746371 -0.68595755 0.81344418
-0.03751100 -0.68601840 0.81325769
-0.03755830 -0.68607926 0.81307120
-0.03760082 -0.68597886 0.81284381
-0.03764714 -0.68600746 0.81264919
-0.03769442 -0.68606830 0.81246276
-0.03773979 -0.68606458 0.81226001
-0.03778706 -0.68612542 0.81207359
-0.03783434 -0.68618625 0.81188718
-0.03788259 -0.68627934 0.81170889
-0.03793180 -0.68640476 0.81153871
-0.03797908 -0.68646560 0.81135227
-0.03802637 -0.68652644 0.81116583
-0.03807365 -0.68658728 0.81097939
-0.03812093 -0.68664813 0.81079295
-0.03816822 -0.68670897 0.81060651
-0.03821550 -0.68676981 0.81042007
-0.03826278 -0.68683066 0.81023362
-0.03831006 -0.68689150 0.81004718
-0.03835933 -0.68701692 0.80987681
-0.03840662 -0.68707777 0.80969035
-0.03845391 -0.68713861 0.80950389
-0.03850120 -0.68719946 0.80931743
-0.03854848 -0.68726031 0.80913097
-0.03859577 -0.68732116 0.80894451
-0.03864306 -0.68738201 0.80875805
-0.03868933 -0.68741055 0.80856362
-0.03873662 -0.68747139 0.80837717
-0.03878289 -0.68749992 0.80818277
-0.03882915 -0.68752845 0.80798838
-0.03887643 -0.68758929 0.80780195
-0.03892474 -0.68768245 0.80762345
-0.03897304 -0.68777562 0.80744491
-0.03902033 -0.68783646 0.80725846
-0.03906761 -0.68789731 0.80707201
-0.03911594 -0.68799049 0.80689345
-0.03916322 -0.68805134 0.80670699
-0.03921051 -0.68811219 0.80652053
-0.03925676 -0.68814069 0.80632621
-0.03930404 -0.68820154 0.80613976
-0.03935133 -0.68826238 0.80595331
-0.03939861 -0.68832323 0.80576686
-0.03944486 -0.68835172 0.80557259
-0.03949318 -0.68844492 0.80539396
-0.03953942 -0.68847340 0.80519970
-0.03958671 -0.68853425 0.80501326
-0.03963399 -0.68859509 0.80482682
-0.03968127 -0.68865593 0.80464038
-0.03972961 -0.68874915 0.80446171
-0.03977584 -0.68877762 0.80426750
-0.03982312 -0.68883846 0.80408106
-0.03987040 -0.68889930 0.80389462
-0.03991769 -0.68896014 0.80370817
-0.03996497 -0.68902099 0.80352173
-0.04001225 -0.68908183 0.80333529
-0.04005845 -0.68911028 0.80314114
-0.04010573 -0.68917111 0.80295471
-0.04015518 -0.68929676 0.80278365
-0.04020246 -0.68935760 0.80259720
-0.04024975 -0.68941845 0.80241075
-0.04029813 -0.68951171 0.80223196
-0.04034542 -0.68957255 0.80204550
-0.04039160 -0.68960098 0.80185140
-0.04043452 -0.68953210 0.80163441
-0.03958969 -0.66316635 0.79523530
-0.03963508 -0.66322476 0.79505633
-0.01313080 -0.65763726 0.90964488
-0.01317781 -0.65776038 0.90948351
-0.01322531 -0.65782151 0.90929619
-0.01327282 -0.65788264 0.90910887
-0.01332032 -0.65794377 0.90892155
-0.01336759 -0.65803596 0.90874718
-0.01341510 -0.65809710 0.90855984
-0.01346260 -0.65815823 0.90837251
-0.01351035 -0.65818829 0.90817226
-0.01355786 -0.65824942 0.90798493
-0.01360536 -0.65831055 0.90779761
-0.01365287 -0.65837168 0.90761029
-0.01370038 -0.65843281 0.90742297
-0.01374832 -0.65843187 0.90720992
-0.01379624 -0.65843092 0.90699691
-0.01384374 -0.65849204 0.90680963
-0.01389144 -0.65852212 0.90660951
-0.01393893 -0.65858323 0.90642223
-0.01398664 -0.65861330 0.90622214
-0.01403433 -0.65864336 0.90602207
-0.01408163 -0.65873552 0.90584761
-0.01412912 -0.65879664 0.90566034
-0.01417661 -0.65885775 0.90547307
-0.01422411 -0.65891886 0.90528581
-0.01427103 -0.65907317 0.90513682
-0.01431853 -0.65913429 0.90494952
-0.01488787 -0.65999222 0.90275256
-0.01493538 -0.66005335 0.90256523
-0.01498367 -0.65995887 0.90231477
-0.01503162 -0.65992665 0.90208965
-0.01507897 -0.66001888 0.90191500
-0.01512646 -0.66007999 0.90172773
-0.01517395 -0.66014110 0.90154046
-0.01550407 -0.66112994 0.90045512
-0.01555122 -0.66128472 0.90030529
-0.01559900 -0.66128348 0.90009278
-0.01564654 -0.66134465 0.89990533
-0.01569407 -0.66140582 0.89971789
-0.01574196 -0.66137334 0.89949296
-0.01593253 -0.66149312 0.89869350
-0.01602841 -0.66136583 0.89821933
-0.01607591 -0.66142695 0.89803203
-0.01612330 -0.66151926 0.89785712
-0.01617081 -0.66158038 0.89766980
-0.01621850 -0.66157913 0.89745773
-0.01626609 -0.66160906 0.89725806
-0.01631359 -0.66167018 0.89707078
-0.01636109 -0.66173130 0.89688349
-0.01640866 -0.66176121 0.89668386
-0.01645633 -0.66175992 0.89647192
-0.01650382 -0.66182103 0.89628466
-0.01655115 -0.66194456 0.89612203
-0.01659864 -0.66200567 0.89593475
-0.01664607 -0.66209801 0.89575978
-0.01669350 -0.66219034 0.89558478
-0.01674086 -0.66231391 0.89542205
-0.01678830 -0.66240626 0.89524700
-0.01683555 -0.66259242 0.89510877
-0.01688307 -0.66265356 0.89492141
-0.01693082 -0.66258965 0.89468504
-0.01702527 -0.66302466 0.89443277
-0.01707271 -0.66314842 0.89426983
-0.01712003 -0.66333480 0.89413130
-0.01716734 -0.66355258 0.89400495
-0.01721480 -0.66367645 0.89384188
-0.01726228 -0.66380033 0.89367877
-0.01730976 -0.66392422 0.89351562
-0.01735713 -0.66414232 0.89338907
-0.01740437 -0.66451745 0.89332346
-0.01745183 -0.66470441 0.89318455
-0.01749932 -0.66489139 0.89304558
-0.01754692 -0.66498412 0.89286998
-0.01759464 -0.66491966 0.89263348
-0.01765942 -0.64300304 0.88394080
-0.01770537 -0.64309153 0.88377085
-0.01775134 -0.64315069 0.88358956
-0.01779732 -0.64320985 0.88340827
-0.01784330 -0.64326902 0.88322699
-0.01788927 -0.64332818 0.88304570
-0.01859381 -0.66510574 0.88827196
-0.01864135 -0.66516691 0.88808453
-0.01868888 -0.66522807 0.88789710
-0.01873633 -0.66519502 0.88767392
-0.01878334 -0.66475426 0.88729627
-0.01883108 -0.66503485 0.88719214
-0.01887865 -0.66515876 0.88702857
-0.01892635 -0.66537687 0.88690056
-0.01897393 -0.66546939 0.88672503
-0.01902149 -0.66556196 0.88654949
-0.01906906 -0.66565455 0.88637393
-0.01911659 -0.66571571 0.88618652
-0.01916412 -0.66577687 0.88599910
-0.01921165 -0.66583803 0.88581169
-0.01925891 -0.66574211 0.88556525
-0.01930603 -0.66558339 0.88529535
-0.01935347 -0.66561312 0.88509627
-0.01940097 -0.66567424 0.88490898
-0.01944840 -0.66570397 0.88470992
-0.02021326 -0.66819477 0.88227185
-0.02026253 -0.66876204 0.88227074
-0.02031018 -0.66882335 0.88208286
-0.02035783 -0.66888466 0.88189498
-0.02040547 -0.66894597 0.88170711
-0.02045312 -0.66900728 0.88151923
-0.02050077 -0.66906859 0.88133135
-0.02054841 -0.66912990 0.88114348
-0.02059606 -0.66919121 0.88095560
-0.02064371 -0.66925253 0.88076772
-0.02069136 -0.66931384 0.88057984
-0.02073900 -0.66937515 0.88039197
-0.02078665 -0.66943646 0.88020409
-0.02083430 -0.66949777 0.88001621
-0.02088194 -0.66955908 0.87982833
-0.02092959 -0.66962039 0.87964046
-0.02097724 -0.66968170 0.87945258
-0.02102489 -0.66974302 0.87926470
-0.02107253 -0.66980433 0.87907682
-0.02112018 -0.66986564 0.87888895
-0.02147816 -0.64006753 0.86587278
-0.02152355 -0.64012593 0.86569381
-0.02156893 -0.64018434 0.86551484
-0.02161432 -0.64024274 0.86533587
-0.02165971 -0.64030115 0.86515690
-0.02170510 -0.64035955 0.86497793
-0.02175049 -0.64041795 0.86479896
-0.02179588 -0.64047636 0.86461999
-0.02184126 -0.64053476 0.86444102
-0.02188665 -0.64059317 0.86426205
-0.02193204 -0.64065157 0.86408308
-0.02197743 -0.64070998 0.86390411
-0.02202282 -0.64076838 0.86372514
-0.02206821 -0.64082679 0.86354617
-0.02211359 -0.64088519 0.86336720
-0.02215898 -0.64094360 0.86318822
-0.02220437 -0.64100200 0.86300925
-0.02224976 -0.64106040 0.86283028
-0.02229515 -0.64111881 0.86265131
-0.02234054 -0.64117721 0.86247234
-0.02238592 -0.64123562 0.86229337
-0.02243131 -0.64129402 0.86211440
-0.02247670 -0.64135243 0.86193543
-0.02252209 -0.64141083 0.86175646
-0.02256748 -0.64146924 0.86157749
-0.02261287 -0.64152764 0.86139852
-0.02265825 -0.64158605 0.86121955
-0.02270364 -0.64164445 0.86104058
-0.02274903 -0.64170285 0.86086161
-0.02279442 -0.64176126 0.86068264
-0.02283981 -0.64181966 0.86050367
-0.02288520 -0.64187807 0.86032469
-0.02293059 -0.64193647 0.86014572
-0.02297597 -0.64199488 0.85996675
-0.02302136 -0.64205328 0.85978778
-0.02306675 -0.64211169 0.85960881
-0.02397901 -0.67354431 0.86761630
-0.02402666 -0.67360562 0.86742843
-0.02407431 -0.67366693 0.86724055
-0.02412195 -0.67372824 0.86705267
-0.02416960 -0.67378955 0.86686479
-0.02421725 -0.67385086 0.86667692
-0.02426490 -0.67391217 0.86648904
-0.02431254 -0.67397348 0.86630116
-0.02436019 -0.67403480 0.86611328
-0.02440784 -0.67409611 0.86592541
-0.02497306 -0.64456468 0.85209205
-0.02501845 -0.64462308 0.85191308
-0.02506384 -0.64468149 0.85173410
-0.02510923 -0.64473989 0.85155513
-0.02515462 -0.64479829 0.85137616
-0.02520000 -0.64485670 0.85119719
-0.02524539 -0.64491510 0.85101822
-0.02529078 -0.64497351 0.85083925
-0.03703435 -0.69034356 0.81613790
-0.03708199 -0.69040487 0.81595002
-0.03712964 -0.69046618 0.81576214
-0.03717729 -0.69052749 0.81557427
-0.03722494 -0.69058880 0.81538639
-0.03727258 -0.69065011 0.81519851
-0.03732023 -0.69071143 0.81501063
-0.03736788 -0.69077274 0.81482276
-0.03741553 -0.69083405 0.81463488
-0.03746317 -0.69089536 0.81444700
-0.03751082 -0.69095667 0.81425912
-0.03755847 -0.69101798 0.81407125
-0.03760611 -0.69107929 0.81388337
-0.03765376 -0.69114060 0.81369549
-0.03770141 -0.69120191 0.81350761
-0.03774906 -0.69126323 0.81331974
-0.03779670 -0.69132454 0.81313186
-0.03784435 -0.69138585 0.81294398
-0.03789200 -0.69144716 0.81275610
-0.03793964 -0.69150847 0.81256823
-0.03798729 -0.69156978 0.81238035
-0.03803494 -0.69163109 0.81219247
-0.03808259 -0.69169240 0.81200459
-0.03813023 -0.69175371 0.81181672
-0.03817788 -0.69181503 0.81162884
-0.03822553 -0.69187634 0.81144096
-0.03827317 -0.69193765 0.81125309
-0.03832082 -0.69199896 0.81106521
-0.03836847 -0.69206027 0.81087733
-0.03841612 -0.69212158 0.81068945
-0.03846376 -0.69218289 0.81050158
-0.03851141 -0.69224420 0.81031370
-0.03855906 -0.69230551 0.81012582
-0.03860671 -0.69236683 0.80993794
-0.03865435 -0.69242814 0.80975007
-0.03870200 -0.69248945 0.80956219
-0.03874965 -0.69255076 0.80937431
-0.03879729 -0.69261207 0.80918643
-0.03884494 -0.69267338 0.80899856
-0.03889259 -0.69273469 0.80881068
-0.03894024 -0.69279600 0.80862280
-0.03898788 -0.69285732 0.80843492
-0.03903553 -0.69291863 0.80824705
-0.03908318 -0.69297994 0.80805917
-0.03913082 -0.69304125 0.80787129
-0.03917847 -0.69310256 0.80768341
-0.03922612 -0.69316387 0.80749554
-0.03927377 -0.69322518 0.80730766
-0.03932141 -0.69328649 0.80711978
-0.03936906 -0.69334780 0.80693190
-0.03941671 -0.69340912 0.80674403
-0.03946436 -0.69347043 0.80655615
-0.03951200 -0.69353174 0.80636827
-0.03955965 -0.69359305 0.80618039
-0.03960730 -0.69365436 0.80599252
-0.03965494 -0.69371567 0.80580464
-0.03970259 -0.69377698 0.80561676
-0.03975024 -0.69383829 0.80542888
-0.03979789 -0.69389960 0.80524101
-0.03984553 -0.69396092 0.80505313
-0.03989318 -0.69402223 0.80486525
-0.03994083 -0.69408354 0.80467738
-0.03998847 -0.69414485 0.80448950
-0.04003612 -0.69420616 0.80430162
-0.04008377 -0.69426747 0.80411374
-0.04013142 -0.69432878 0.80392587
-0.04017906 -0.69439009 0.80373799
-0.04022671 -0.69445140 0.80355011
-0.04027436 -0.69451272 0.80336223
-0.04032201 -0.69457403 0.80317436
-0.04036965 -0.69463534 0.80298648
-0.04024812 -0.68963159 0.80160670
-0.03940657 -0.66313732 0.79517939
-0.03945195 -0.66319572 0.79500042
-0.01293915 -0.65760688 0.90958636
-0.01298665 -0.65766800 0.90939906
-0.01303415 -0.65772913 0.90921175
-0.01308141 -0.65782125 0.90903740
-0.01312866 -0.65791338 0.90886303
-0.01317617 -0.65797451 0.90867570
-0.01322342 -0.65806671 0.90850132
-0.01327118 -0.65809677 0.90830106
-0.01331893 -0.65812689 0.90810083
-0.01336643 -0.65818801 0.90791352
-0.01341394 -0.65824914 0.90772620
-0.01346167 -0.65827924 0.90752601
-0.01350939 -0.65830934 0.90732584
-0.01355711 -0.65833943 0.90712569
-0.01360461 -0.65840054 0.90693840
-0.01365233 -0.65843063 0.90673827
-0.01369982 -0.65849174 0.90655100
-0.01374753 -0.65852181 0.90635090
-0.01379547 -0.65852083 0.90613802
-0.01384295 -0.65858194 0.90595077
-0.01389022 -0.65867410 0.90577631
-0.01393771 -0.65873520 0.90558905
-0.01398500 -0.65882737 0.90541457
-0.01403249 -0.65888848 0.90522730
-0.01407958 -0.65901173 0.90506554
-0.01412708 -0.65907284 0.90487826
-0.01464955 -0.65974514 0.90281812
-0.01469655 -0.65989957 0.90266875
-0.01474405 -0.65996070 0.90248143
-0.01479204 -0.65992850 0.90225626
-0.01483970 -0.65995850 0.90205636
-0.01488719 -0.66001962 0.90186909
-0.01493469 -0.66008073 0.90168181
-0.01498203 -0.66017297 0.90150712
-0.01502937 -0.66026521 0.90133240
-0.01531313 -0.66091239 0.90032136
-0.01536009 -0.66109830 0.90018407
-0.01540790 -0.66109705 0.89997162
-0.01545529 -0.66118941 0.89979674
-0.01550282 -0.66125057 0.89960933
-0.01555048 -0.66128051 0.89940943
-0.01569448 -0.66108974 0.89869783
-0.01574081 -0.66146273 0.89863496
-0.01578799 -0.66161751 0.89848490
-0.01583676 -0.66133545 0.89816081
-0.01588436 -0.66136539 0.89796110
-0.01593186 -0.66142651 0.89777380
-0.01597947 -0.66145645 0.89757412
-0.01602707 -0.66148638 0.89737445
-0.01607466 -0.66151630 0.89717481
-0.01612216 -0.66157741 0.89698754
-0.01616974 -0.66160733 0.89678793
-0.01621724 -0.66166844 0.89660067
-0.01626502 -0.66163594 0.89637642
-0.01631250 -0.66169704 0.89618919
-0.01635981 -0.66182056 0.89602659
-0.01640702 -0.66197530 0.89587624
-0.01645452 -0.66203641 0.89568897
-0.01650193 -0.66212874 0.89551398
-0.01654935 -0.66222108 0.89533897
-0.01659664 -0.66237588 0.89518848
-0.01664400 -0.66249952 0.89502570
-0.01683339 -0.66305685 0.89439870
-0.01688067 -0.66324322 0.89426021
-0.01692822 -0.66330440 0.89407273
-0.01697566 -0.66342819 0.89390970
-0.01702315 -0.66352068 0.89373442
-0.01707060 -0.66364455 0.89357134
-0.01711795 -0.66383111 0.89343262
-0.01716526 -0.66404913 0.89330605
-0.01721244 -0.66439281 0.89322821
-0.01725982 -0.66461108 0.89310149
-0.01730735 -0.66473523 0.89293815
-0.01735481 -0.66492221 0.89279912
-0.01740252 -0.66488921 0.89257482
-0.01751992 -0.64303280 0.88370288
-0.01756586 -0.64312129 0.88353293
-0.01761183 -0.64318045 0.88335164
-0.01765781 -0.64323961 0.88317035
-0.01770379 -0.64329877 0.88298906
-0.01835446 -0.66488860 0.88835305
-0.01840203 -0.66507534 0.88821340
-0.01844956 -0.66513650 0.88802597
-0.01849709 -0.66519767 0.88783854
-0.01854461 -0.66522743 0.88763919
-0.01859209 -0.66519437 0.88741607
-0.01863961 -0.66525553 0.88722867
-0.01868714 -0.66531668 0.88704128
-0.01873469 -0.66540925 0.88686575
-0.01878222 -0.66547041 0.88667835
-0.01882977 -0.66556299 0.88650279
-0.01887733 -0.66565557 0.88632723
-0.01892487 -0.66571674 0.88613980
-0.01897236 -0.66574647 0.88594055
-0.01901989 -0.66580763 0.88575313
-0.01906725 -0.66574310 0.88551851
-0.01911452 -0.66564721 0.88527219
-0.01916189 -0.66561413 0.88504953
-0.01920939 -0.66567525 0.88486222
-0.01925689 -0.66573638 0.88467492
-0.02002118 -0.66816432 0.88221320
-0.02007031 -0.66873156 0.88221205
-0.02011795 -0.66879288 0.88202417
-0.02016560 -0.66885419 0.88183629
-0.02021325 -0.66891550 0.88164841
-0.02026090 -0.66897681 0.88146054
-0.02030854 -0.66903812 0.88127266
-0.02035619 -0.66909943 0.88108478
-0.02040384 -0.66916074 0.88089690
-0.02045148 -0.66922205 0.88070903
-0.02049913 -0.66928336 0.88052115
-0.02054678 -0.66934468 0.88033327
-0.02059443 -0.66940599 0.88014539
-0.02064207 -0.66946730 0.87995752
-0.02068972 -0.66952861 0.87976964
-0.02073737 -0.66958992 0.87958176
-0.02078502 -0.66965123 0.87939389
-0.02083266 -0.66971254 0.87920601
-0.02088031 -0.66977385 0.87901813
-0.02134042 -0.64009690 0.86563790
-0.02138581 -0.64015531 0.86545893
-0.02143120 -0.64021371 0.86527996
-0.02147659 -0.64027212 0.86510099
-0.02152198 -0.64033052 0.86492202
-0.02156737 -0.64038892 0.86474305
-0.02161275 -0.64044733 0.86456408
-0.02165814 -0.64050573 0.86438510
-0.02170353 -0.64056414 0.86420613
-0.02174892 -0.64062254 0.86402716
-0.02179431 -0.64068095 0.86384819
-0.02183970 -0.64073935 0.86366922
-0.02188508 -0.64079776 0.86349025
-0.02193047 -0.64085616 0.86331128
-0.02197586 -0.64091457 0.86313231
-0.02202125 -0.64097297 0.86295334
-0.02206664 -0.64103137 0.86277437
-0.02211203 -0.64108978 0.86259540
-0.02215742 -0.64114818 0.86241643
-0.02220280 -0.64120659 0.86223746
-0.02224819 -0.64126499 0.86205849
-0.02229358 -0.64132340 0.86187952
-0.02233897 -0.64138180 0.86170055
-0.02238436 -0.64144021 0.86152157
-0.02242975 -0.64149861 0.86134260
-0.02247513 -0.64155701 0.86116363
-0.02252052 -0.64161542 0.86098466
-0.02256591 -0.64167382 0.86080569
-0.02261130 -0.64173223 0.86062672
-0.02265669 -0.64179063 0.86044775
-0.02270208 -0.64184904 0.86026878
-0.02274746 -0.64190744 0.86008981
-0.02279285 -0.64196585 0.85991084
-0.02283824 -0.64202425 0.85973187
-0.02373914 -0.67345252 0.86774549
-0.02378679 -0.67351383 0.86755761
-0.02383444 -0.67357514 0.86736973
-0.02388208 -0.67363646 0.86718185
-0.02392973 -0.67369777 0.86699398
-0.02397738 -0.67375908 0.86680610
-0.02402503 -0.67382039 0.86661822
-0.02407267 -0.67388170 0.86643034
-0.02412032 -0.67394301 0.86624247
-0.02416797 -0.67400432 0.86605459
-0.02421561 -0.67406563 0.86586671
-0.02426326 -0.67412694 0.86567884
-0.02438145 -0.64401001 0.85364687
-0.02442683 -0.64406841 0.85346790
-0.02456300 -0.64424362 0.85293098
-0.02460839 -0.64430203 0.85275201
-0.02465378 -0.64436043 0.85257304
-0.02469916 -0.64441884 0.85239407
-0.02474455 -0.64447724 0.85221510
-0.02478994 -0.64453565 0.85203613
-0.02483533 -0.64459405 0.85185716
-0.02488072 -0.64465246 0.85167819
-0.02492611 -0.64471086 0.85149922
-0.02497149 -0.64476926 0.85132025
-0.02501688 -0.64482767 0.85114128
-0.02506227 -0.64488607 0.85096231
-0.02510766 -0.64494448 0.85078334
-0.02515305 -0.64500288 0.85060437
-0.02998093 -0.68148428 0.84313355
-0.03002857 -0.68154559 0.84294567
-0.03007622 -0.68160690 0.84275779
-0.03012387 -0.68166821 0.84256992
-0.03684212 -0.69031309 0.81607920
-0.03688977 -0.69037440 0.81589133
-0.03693742 -0.69043571 0.81570345
-0.03698507 -0.69049702 0.81551557
-0.03703271 -0.69055833 0.81532769
-0.03708036 -0.69061964 0.81513982
-0.03712801 -0.69068095 0.81495194
-0.03717565 -0.69074226 0.81476406
-0.03722330 -0.69080357 0.81457618
-0.03727095 -0.69086489 0.81438831
-0.03731860 -0.69092620 0.81420043
-0.03736624 -0.69098751 0.81401255
-0.03741389 -0.69104882 0.81382467
-0.03746154 -0.69111013 0.81363680
-0.03750919 -0.69117144 0.81344892
-0.03755683 -0.69123275 0.81326104
-0.03760448 -0.69129406 0.81307316
-0.03765213 -0.69135537 0.81288529
-0.03769977 -0.69141669 0.81269741
-0.03774742 -0.69147800 0.81250953
-0.03779507 -0.69153931 0.81232165
-0.03784272 -0.69160062 0.81213378
-0.03789036 -0.69166193 0.81194590
-0.03793801 -0.69172324 0.81175802
-0.03798566 -0.69178455 0.81157014
-0.03803330 -0.69184586 0.81138227
-0.03808095 -0.69190717 0.81119439
-0.03812860 -0.69196849 0.81100651
-0.03817625 -0.69202980 0.81081864
-0.03822389 -0.69209111 0.81063076
-0.03827154 -0.69215242 0.81044288
-0.03831919 -0.69221373 0.81025500
-0.03836683 -0.69227504 0.81006713
-0.03841448 -0.69233635 0.80987925
-0.03846213 -0.69239766 0.80969137
-0.03850978 -0.69245898 0.80950349
-0.03855742 -0.69252029 0.80931562
-0.03860507 -0.69258160 0.80912774
-0.03865272 -0.69264291 0.80893986
-0.03870037 -0.69270422 0.80875198
-0.03874801 -0.69276553 0.80856411
-0.03879566 -0.69282684 0.80837623
-0.03884331 -0.69288815 0.80818835
-0.03889095 -0.69294946 0.80800047
-0.03893860 -0.69301078 0.80781260
-0.03898625 -0.69307209 0.80762472
-0.03903390 -0.69313340 0.80743684
-0.03908154 -0.69319471 0.80724896
-0.03912919 -0.69325602 0.80706109
-0.03917684 -0.69331733 0.80687321
-0.03922448 -0.69337864 0.80668533
-0.03927213 -0.69343995 0.80649745
-0.03931978 -0.69350126 0.80630958
-0.03936743 -0.69356258 0.80612170
-0.03941507 -0.69362389 0.80593382
-0.03946272 -0.69368520 0.80574594
-0.03951037 -0.69374651 0.80555807
-0.03955802 -0.69380782 0.80537019
-0.03960566 -0.69386913 0.80518231
-0.03965331 -0.69393044 0.80499444
-0.03970096 -0.69399175 0.80480656
-0.03974860 -0.69405306 0.80461868
-0.03979625 -0.69411438 0.80443080
-0.03984390 -0.69417569 0.80424293
-0.03989155 -0.69423700 0.80405505
-0.03993919 -0.69429831 0.80386717
-0.03998684 -0.69435962 0.80367929
-0.04003449 -0.69442093 0.80349142
-0.04008213 -0.69448224 0.80330354
-0.04012978 -0.69454355 0.80311566
-0.04017743 -0.69460487 0.80292778
-0.01274751 -0.65757650 0.90952784
-0.01279501 -0.65763762 0.90934054
-0.01284251 -0.65769875 0.90915323
-0.01288975 -0.65779087 0.90897887
-0.01293701 -0.65788300 0.90880450
-0.01298451 -0.65794413 0.90861718
-0.01303202 -0.65800526 0.90842986
-0.01307976 -0.65803538 0.90822962
-0.01312727 -0.65809650 0.90804231
-0.01317477 -0.65815763 0.90785500
-0.01322252 -0.65818774 0.90765480
-0.01327003 -0.65824886 0.90746750
-0.01331776 -0.65827896 0.90726733
-0.01336549 -0.65830905 0.90706718
-0.01341299 -0.65837017 0.90687989
-0.01346071 -0.65840025 0.90667977
-0.01350820 -0.65846136 0.90649249
-0.01355616 -0.65846039 0.90627958
-0.01360388 -0.65849046 0.90607952
-0.01365137 -0.65855157 0.90589227
-0.01369863 -0.65864372 0.90571781
-0.01374590 -0.65873588 0.90554333
-0.01379317 -0.65882805 0.90536883
-0.01384047 -0.65892023 0.90519432
-0.01388755 -0.65904347 0.90503254
-0.01393505 -0.65910460 0.90484524
-0.01441043 -0.65965365 0.90294689
-0.01445774 -0.65974586 0.90277225
-0.01450489 -0.65986919 0.90261022
-0.01455239 -0.65993032 0.90242291
-0.01460042 -0.65989812 0.90219775
-0.01464808 -0.65992812 0.90199786
-0.01469557 -0.65998924 0.90181058
-0.01474307 -0.66005035 0.90162330
-0.01479024 -0.66017371 0.90146118
-0.01483742 -0.66029708 0.90129903
-0.01488492 -0.66035820 0.90111172
-0.01512214 -0.66072618 0.90020020
-0.01516892 -0.66094315 0.90007544
-0.01521715 -0.66084844 0.89982553
-0.01526466 -0.66090958 0.89963820
-0.01531217 -0.66097071 0.89945087
-0.01535968 -0.66103184 0.89926354
-0.01540787 -0.66093712 0.89901390
-0.01545537 -0.66099824 0.89882661
-0.01550156 -0.66137118 0.89876379
-0.01554857 -0.66155718 0.89862620
-0.01559598 -0.66164957 0.89845123
-0.01564512 -0.66130506 0.89810230
-0.01569285 -0.66130383 0.89789018
-0.01574035 -0.66136495 0.89770290
-0.01578795 -0.66139488 0.89750322
-0.01583557 -0.66142481 0.89730357
-0.01588306 -0.66148592 0.89711631
-0.01593099 -0.66142227 0.89687962
-0.01616841 -0.66172777 0.89594346
-0.01621551 -0.66191371 0.89580544
-0.01626290 -0.66200603 0.89563046
-0.01631049 -0.66203593 0.89543090
-0.01664131 -0.66315163 0.89438911
-0.01668886 -0.66321281 0.89420164
-0.01673640 -0.66327399 0.89401416
-0.01678394 -0.66333517 0.89382670
-0.01683143 -0.66342765 0.89365143
-0.01687898 -0.66348883 0.89346395
-0.01692635 -0.66364401 0.89331305
-0.01697344 -0.66395596 0.89322305
-0.01702090 -0.66407992 0.89305984
-0.01706800 -0.66442362 0.89298189
-0.01711550 -0.66454769 0.89281857
-0.01738037 -0.64309188 0.88347629
-0.01742631 -0.64318038 0.88330632
-0.01747229 -0.64323954 0.88312502
-0.01751830 -0.64326937 0.88293242
-0.01816272 -0.66485820 0.88829450
-0.01821025 -0.66501354 0.88814291
-0.01825779 -0.66510610 0.88796742
-0.01830532 -0.66516727 0.88777998
-0.01835286 -0.66522844 0.88759255
-0.01840038 -0.66525820 0.88739322
-0.01844791 -0.66531936 0.88720579
-0.01849546 -0.66541193 0.88703025
-0.01854299 -0.66547310 0.88684281
-0.01859053 -0.66553427 0.88665538
-0.01863806 -0.66559543 0.88646795
-0.01868560 -0.66565660 0.88628052
-0.01873313 -0.66571776 0.88609308
-0.01878067 -0.66577893 0.88590565
-0.01882813 -0.66577723 0.88569458
-0.01887560 -0.66577552 0.88548356
-0.01892299 -0.66574247 0.88526081
-0.01897035 -0.66567796 0.88502633
-0.01901786 -0.66573909 0.88483900
-0.01906534 -0.66576878 0.88463990
-0.01911275 -0.66576712 0.88442910
-0.01982900 -0.66810231 0.88214290
-0.01987807 -0.66870109 0.88215335
-0.01992572 -0.66876240 0.88196547
-0.01997336 -0.66882371 0.88177759
-0.02002101 -0.66888502 0.88158972
-0.02006866 -0.66894633 0.88140184
-0.02011631 -0.66900764 0.88121396
-0.02016395 -0.66906896 0.88102608
-0.02021160 -0.66913027 0.88083821
-0.02025925 -0.66919158 0.88065033
-0.02030689 -0.66925289 0.88046245
-0.02035454 -0.66931420 0.88027457
-0.02040219 -0.66937551 0.88008670
-0.02044984 -0.66943682 0.87989882
-0.02049748 -0.66949813 0.87971094
-0.02054513 -0.66955944 0.87952306
-0.02059278 -0.66962076 0.87933519
-0.02064043 -0.66968207 0.87914731
-0.02068807 -0.66974338 0.87895943
-0.02115730 -0.64006787 0.86558198
-0.02120269 -0.64012628 0.86540301
-0.02124808 -0.64018468 0.86522404
-0.02129347 -0.64024309 0.86504507
-0.02133886 -0.64030149 0.86486610
-0.02138425 -0.64035989 0.86468713
-0.02142963 -0.64041830 0.86450816
-0.02147502 -0.64047670 0.86432919
-0.02152041 -0.64053511 0.86415022
-0.02156580 -0.64059351 0.86397125
-0.02161119 -0.64065192 0.86379228
-0.02165658 -0.64071032 0.86361331
-0.02170196 -0.64076873 0.86343434
-0.02174735 -0.64082713 0.86325537
-0.02179274 -0.64088553 0.86307640
-0.02183813 -0.64094394 0.86289742
-0.02188352 -0.64100234 0.86271845
-0.02192891 -0.64106075 0.86253948
-0.02197429 -0.64111915 0.86236051
-0.02201968 -0.64117756 0.86218154
-0.02206507 -0.64123596 0.86200257
-0.02211046 -0.64129437 0.86182360
-0.02215585 -0.64135277 0.86164463
-0.02220124 -0.64141118 0.86146566
-0.02224662 -0.64146958 0.86128669
-0.02229201 -0.64152798 0.86110772
-0.02233740 -0.64158639 0.86092875
-0.02238279 -0.64164479 0.86074978
-0.02242818 -0.64170320 0.86057081
-0.02247357 -0.64176160 0.86039184
-0.02251895 -0.64182001 0.86021287
-0.02256434 -0.64187841 0.86003389
-0.02260973 -0.64193682 0.85985492
-0.02335632 -0.67317680 0.86843830
-0.02340396 -0.67323811 0.86825042
-0.02345161 -0.67329942 0.86806254
-0.02349926 -0.67336073 0.86787467
-0.02354690 -0.67342205 0.86768679
-0.02359455 -0.67348336 0.86749891
-0.02364220 -0.67354467 0.86731103
-0.02368985 -0.67360598 0.86712316
-0.02373749 -0.67366729 0.86693528
-0.02378514 -0.67372860 0.86674740
-0.02383279 -0.67378991 0.86655952
-0.02388044 -0.67385122 0.86637165
-0.02392808 -0.67391254 0.86618377
-0.02397573 -0.67397385 0.86599589
-0.02402338 -0.67403516 0.86580801
-0.02407102 -0.67409647 0.86562014
-0.02415294 -0.64392257 0.85376992
-0.02419833 -0.64398098 0.85359095
-0.02424371 -0.64403938 0.85341198
-0.02428910 -0.64409778 0.85323301
-0.02433449 -0.64415619 0.85305404
-0.02437988 -0.64421459 0.85287507
-0.02442527 -0.64427300 0.85269610
-0.02447066 -0.64433140 0.85251713
-0.02451604 -0.64438981 0.85233816
-0.02456143 -0.64444821 0.85215919
-0.02460682 -0.64450662 0.85198022
-0.02465221 -0.64456502 0.85180125
-0.02469760 -0.64462343 0.85162228
-0.02474299 -0.64468183 0.85144331
-0.02478837 -0.64474023 0.85126433
-0.02483376 -0.64479864 0.85108536
-0.02487915 -0.64485704 0.85090639
-0.02492454 -0.64491545 0.85072742
-0.02496993 -0.64497385 0.85054845
-0.02501532 -0.64503226 0.85036948
-0.02969339 -0.68133118 0.84345060
-0.02974104 -0.68139249 0.84326273
-0.02978869 -0.68145381 0.84307485
-0.02983634 -0.68151512 0.84288697
-0.02988398 -0.68157643 0.84269909
-0.02993163 -0.68163774 0.84251122
-0.02997928 -0.68169905 0.84232334
-0.03663363 -0.68806186 0.81524719
-0.03668202 -0.68815546 0.81506829
-0.03673134 -0.68828159 0.81489770
-0.03678158 -0.68844023 0.81473537
-0.03682908 -0.68850135 0.81454808
-0.03687564 -0.68852995 0.81435250
-0.03691852 -0.68842846 0.81412381
-0.03696323 -0.68839204 0.81391177
-0.03700977 -0.68842066 0.81371632
-0.03706284 -0.68867682 0.81357864
-0.03711126 -0.68877046 0.81339963
-0.03715875 -0.68883157 0.81321237
-0.03720342 -0.68879506 0.81300043
-0.03725091 -0.68885616 0.81281320
-0.03729933 -0.68894980 0.81263418
-0.03734681 -0.68901091 0.81244694
-0.03739430 -0.68907201 0.81225970
-0.03744178 -0.68913311 0.81207246
-0.03749307 -0.68932444 0.81191791
-0.03754057 -0.68938556 0.81173063
-0.03758711 -0.68941411 0.81153521
-0.03763460 -0.68947522 0.81134794
-0.03768210 -0.68953634 0.81116067
-0.03773055 -0.68963002 0.81098153
-0.03777804 -0.68969113 0.81079425
-0.03782554 -0.68975225 0.81060698
-0.03787303 -0.68981336 0.81041970
-0.03792053 -0.68987448 0.81023242
-0.03796802 -0.68993559 0.81004515
-0.03801552 -0.68999671 0.80985787
-0.03806301 -0.69005782 0.80967059
-0.03811051 -0.69011894 0.80948332
-0.03815800 -0.69018005 0.80929604
-0.03820550 -0.69024117 0.80910876
-0.03825299 -0.69030229 0.80892149
-0.03830049 -0.69036340 0.80873421
-0.03834401 -0.69029407 0.80851491
-0.03838949 -0.69029000 0.80831169
-0.03843698 -0.69035110 0.80812447
-0.03848547 -0.69044476 0.80794521
-0.03853295 -0.69050586 0.80775798
-0.03858043 -0.69056696 0.80757075
-0.03862690 -0.69059548 0.80737558
-0.03867438 -0.69065658 0.80718836
-0.03872288 -0.69075026 0.80700906
-0.03877543 -0.69097455 0.80686145
-0.03882293 -0.69103567 0.80667417
-0.03886533 -0.69093356 0.80644737
-0.03891077 -0.69092942 0.80624436
-0.03895824 -0.69099051 0.80605715
-0.03900572 -0.69105161 0.80586994
-0.03905320 -0.69111270 0.80568272
-0.03909965 -0.69114114 0.80548765
-0.03914816 -0.69123489 0.80530830
-0.03920289 -0.69152459 0.80517596
-0.03925038 -0.69158570 0.80498868
-0.03929788 -0.69164682 0.80480141
-0.03934016 -0.69154456 0.80457507
-0.03938555 -0.69154036 0.80437224
