ply
format ascii 1.0
element vertex 1368
property float x
property float y
property float z
end_header
-0.16404070 -0.41439507 0.14626839
-0.16408760 -0.41429798 0.14608173
-0.16411412 -0.41413968 0.14596470
-0.16273655 -0.40742200 0.15038333
-0.16277606 -0.40730522 0.15022219
-0.16166127 -0.39704310 0.15326155
-0.16168712 -0.39688877 0.15314746
-0.16171297 -0.39673445 0.15303337
-0.16173882 -0.39658012 0.15291928
-0.16176468 -0.39642579 0.15280519
-0.16179053 -0.39627146 0.15269110
-0.16181638 -0.39611714 0.15257701
-0.16184223 -0.39596281 0.15246292
-0.16186808 -0.39580848 0.15234883
-0.16189394 -0.39565415 0.15223473
-0.16191979 -0.39549982 0.15212064
-0.16194564 -0.39534550 0.15200655
-0.16197149 -0.39519117 0.15189246
-0.16199734 -0.39503684 0.15177837
-0.16202320 -0.39488251 0.15166428
-0.16204905 -0.39472819 0.15155019
-0.16207490 -0.39457386 0.15143610
-0.16210075 -0.39441953 0.15132201
-0.16212660 -0.39426520 0.15120792
-0.16215246 -0.39411087 0.15109383
-0.16217831 -0.39395655 0.15097974
-0.16220416 -0.39380222 0.15086565
-0.16223001 -0.39364789 0.15075156
-0.16225586 -0.39349356 0.15063747
-0.16228172 -0.39333924 0.15052338
-0.16230757 -0.39318491 0.15040929
-0.16233342 -0.39303058 0.15029520
-0.16235927 -0.39287625 0.15018111
-0.16238512 -0.39272192 0.15006702
-0.16241098 -0.39256760 0.14995293
-0.16243683 -0.39241327 0.14983884
-0.16246268 -0.39225894 0.14972475
-0.16248853 -0.39210461 0.14961066
-0.16251438 -0.39195029 0.14949657
-0.16254024 -0.39179596 0.14938247
-0.16256609 -0.39164163 0.14926838
-0.16259194 -0.39148730 0.14915429
-0.16261779 -0.39133297 0.14904020
-0.16264364 -0.39117865 0.14892611
-0.16266950 -0.39102432 0.14881202
-0.16269535 -0.39086999 0.14869793
-0.16272120 -0.39071566 0.14858384
-0.16274705 -0.39056134 0.14846975
-0.16277290 -0.39040701 0.14835566
-0.16279876 -0.39025268 0.14824157
-0.16282461 -0.39009835 0.14812748
-0.16285046 -0.38994402 0.14801339
-0.16287631 -0.38978970 0.14789930
-0.16290216 -0.38963537 0.14778521
-0.16292802 -0.38948104 0.14767112
-0.16295387 -0.38932671 0.14755703
-0.16297972 -0.38917238 0.14744294
-0.16300557 -0.38901806 0.14732885
-0.16303142 -0.38886373 0.14721476
-0.16305728 -0.38870940 0.14710067
-0.16308313 -0.38855507 0.14698658
-0.16310898 -0.38840075 0.14687249
-0.16313483 -0.38824642 0.14675839
-0.16316068 -0.38809209 0.14664430
-0.16318654 -0.38793776 0.14653021
-0.16321239 -0.38778343 0.14641612
-0.17202502 -0.39648935 0.11433968
-0.17205216 -0.39632734 0.11421991
-0.17207930 -0.39616533 0.11410014
-0.17210644 -0.39600332 0.11398037
-0.17213358 -0.39584131 0.11386060
-0.17216072 -0.39567931 0.11374083
-0.17218786 -0.39551730 0.11362107
-0.17221499 -0.39535529 0.11350130
-0.16540981 -0.37466557 0.13671844
-0.16543566 -0.37451124 0.13660435
-0.16546151 -0.37435692 0.13649026
-0.16548736 -0.37420259 0.13637617
-0.16551322 -0.37404826 0.13626208
-0.16553907 -0.37389393 0.13614799
-0.16556492 -0.37373960 0.13603390
-0.16559077 -0.37358528 0.13591981
-0.16561662 -0.37343095 0.13580571
-0.16564248 -0.37327662 0.13569162
-0.16566833 -0.37312229 0.13557753
-0.17587870 -0.37348418 0.09733257
-0.17590584 -0.37332218 0.09721280
-0.17593298 -0.37316017 0.09709304
-0.17596012 -0.37299816 0.09697327
-0.17598725 -0.37283615 0.09685350
-0.17601439 -0.37267414 0.09673373
-0.17604153 -0.37251214 0.09661396
-0.17606867 -0.37235013 0.09649419
-0.17609581 -0.37218812 0.09637443
-0.17628578 -0.37105406 0.09553605
-0.17631292 -0.37089205 0.09541628
-0.17634006 -0.37073005 0.09529651
-0.17728991 -0.36505976 0.09110462
-0.17731704 -0.36489775 0.09098485
-0.17734418 -0.36473574 0.09086508
-0.17737132 -0.36457373 0.09074532
-0.17739846 -0.36441172 0.09062555
-0.17742560 -0.36424972 0.09050578
-0.17745274 -0.36408771 0.09038601
-0.17747988 -0.36392570 0.09026624
-0.17750701 -0.36376369 0.09014647
-0.17753415 -0.36360169 0.09002671
-0.17756129 -0.36343968 0.08990694
-0.17758843 -0.36327767 0.08978717
-0.17761557 -0.36311566 0.08966740
-0.17764271 -0.36295365 0.08954763
-0.17766985 -0.36279164 0.08942786
-0.17769698 -0.36262963 0.08930810
-0.17772412 -0.36246763 0.08918833
-0.17775126 -0.36230562 0.08906856
-0.17777840 -0.36214361 0.08894879
-0.17780554 -0.36198160 0.08882902
-0.17783268 -0.36181959 0.08870925
-0.17785982 -0.36165759 0.08858949
-0.17788695 -0.36149558 0.08846972
-0.17783012 -0.36113279 0.08864252
-0.17781910 -0.36087973 0.08865572
-0.17784622 -0.36071785 0.08853605
-0.17790386 -0.36062881 0.08831001
-0.17802265 -0.36068554 0.08787088
-0.17804978 -0.36052353 0.08775111
-0.17807692 -0.36036152 0.08763134
-0.17810406 -0.36019951 0.08751157
-0.17813120 -0.36003750 0.08739180
-0.17815834 -0.35987550 0.08727204
-0.17818548 -0.35971349 0.08715227
-0.17821262 -0.35955148 0.08703250
-0.17823976 -0.35938947 0.08691273
-0.17826689 -0.35922746 0.08679296
-0.17829403 -0.35906546 0.08667319
-0.17832117 -0.35890345 0.08655342
-0.17834831 -0.35874144 0.08643366
-0.17837545 -0.35857943 0.08631389
-0.17840259 -0.35841742 0.08619412
-0.17842973 -0.35825541 0.08607435
-0.17845686 -0.35809341 0.08595458
-0.17848400 -0.35793140 0.08583481
-0.17851114 -0.35776939 0.08571505
-0.17853828 -0.35760738 0.08559528
-0.17856542 -0.35744537 0.08547551
-0.17859256 -0.35728337 0.08535574
-0.17861970 -0.35712136 0.08523597
-0.17864683 -0.35695935 0.08511620
-0.17867397 -0.35679734 0.08499644
-0.17870111 -0.35663533 0.08487667
-0.17872825 -0.35647332 0.08475690
-0.17875539 -0.35631132 0.08463713
-0.17878253 -0.35614931 0.08451736
-0.17880966 -0.35598730 0.08439759
-0.17883680 -0.35582529 0.08427783
-0.17886394 -0.35566328 0.08415806
-0.17889108 -0.35550128 0.08403829
-0.17891822 -0.35533927 0.08391852
-0.17894536 -0.35517726 0.08379875
-0.17897250 -0.35501525 0.08367899
-0.17899963 -0.35485324 0.08355922
-0.17902677 -0.35469123 0.08343945
-0.17905391 -0.35452922 0.08331968
-0.17908105 -0.35436722 0.08319991
-0.17910819 -0.35420521 0.08308015
-0.17913533 -0.35404320 0.08296038
-0.17905475 -0.35363087 0.08321669
-0.17906649 -0.35343324 0.08315073
-0.17909361 -0.35327136 0.08303106
-0.17912072 -0.35310948 0.08291138
-0.17285518 -0.33021917 0.10386040
-0.17288103 -0.33006484 0.10374631
-0.17290689 -0.32991051 0.10363222
-0.16152513 -0.42932407 0.15659792
-0.16152497 -0.42908116 0.15657169
-0.16154482 -0.42890167 0.15647732
-0.16157803 -0.42876439 0.15633751
-0.16161792 -0.42864818 0.15617496
-0.16167788 -0.42859530 0.15594407
-0.16172448 -0.42850016 0.15575863
-0.16175771 -0.42836280 0.15561870
-0.16177757 -0.42818323 0.15552434
-0.16159658 -0.42688780 0.15606044
-0.16164976 -0.42681358 0.15585259
-0.16167626 -0.42665538 0.15573564
-0.16170276 -0.42649718 0.15561869
-0.16174262 -0.42638092 0.15545625
-0.16178917 -0.42628561 0.15527099
-0.16183573 -0.42619026 0.15508569
-0.16188230 -0.42609487 0.15490037
-0.16190882 -0.42593659 0.15478336
-0.16196879 -0.42588310 0.15455230
-0.16202880 -0.42582954 0.15432119
-0.16095059 -0.41697180 0.15738872
-0.16093740 -0.41669373 0.15740749
-0.16099643 -0.41663867 0.15717981
-0.16098979 -0.41638094 0.15717625
-0.16104884 -0.41632581 0.15694852
-0.16289222 -0.41769563 0.15018130
-0.16292541 -0.41755814 0.15004156
-0.16295861 -0.41742067 0.14990176
-0.16297834 -0.41724216 0.14980797
-0.16302500 -0.41714565 0.14962218
-0.16306494 -0.41702863 0.14945933
-0.16316555 -0.41709607 0.14908916
-0.16319878 -0.41695848 0.14894920
-0.16324551 -0.41686182 0.14876316
-0.16327875 -0.41672418 0.14862316
-0.16330524 -0.41656603 0.14850625
-0.16371237 -0.41541360 0.14685079
-0.16377280 -0.41535752 0.14661783
-0.16381968 -0.41526051 0.14643116
-0.16385300 -0.41512261 0.14629083
-0.16387953 -0.41496423 0.14617374
-0.16389122 -0.41428501 0.14605478
-0.16391773 -0.41412671 0.14593775
-0.16251629 -0.40756562 0.15047234
-0.16256907 -0.40748851 0.15026573
-0.16261522 -0.40739154 0.15008180
-0.16264143 -0.40723506 0.14996611
-0.16146982 -0.39703046 0.15323527
-0.16149567 -0.39687613 0.15312118
-0.16152153 -0.39672180 0.15300709
-0.16154738 -0.39656748 0.15289300
-0.16157323 -0.39641315 0.15277891
-0.16159908 -0.39625882 0.15266482
-0.16162493 -0.39610449 0.15255073
-0.16165079 -0.39595017 0.15243664
-0.16167664 -0.39579584 0.15232255
-0.16170249 -0.39564151 0.15220846
-0.16172834 -0.39548718 0.15209437
-0.16175419 -0.39533285 0.15198028
-0.16178005 -0.39517853 0.15186619
-0.16180590 -0.39502420 0.15175210
-0.16183175 -0.39486987 0.15163801
-0.16185760 -0.39471554 0.15152391
-0.16188345 -0.39456122 0.15140982
-0.16190930 -0.39440689 0.15129573
-0.16193516 -0.39425256 0.15118164
-0.16196101 -0.39409823 0.15106755
-0.16198686 -0.39394390 0.15095346
-0.16201271 -0.39378958 0.15083937
-0.16203856 -0.39363525 0.15072528
-0.16206442 -0.39348092 0.15061119
-0.16209027 -0.39332659 0.15049710
-0.16211612 -0.39317227 0.15038301
-0.16214197 -0.39301794 0.15026892
-0.16216782 -0.39286361 0.15015483
-0.16219368 -0.39270928 0.15004074
-0.16221953 -0.39255495 0.14992665
-0.16224538 -0.39240063 0.14981256
-0.16227123 -0.39224630 0.14969847
-0.16229708 -0.39209197 0.14958438
-0.16232294 -0.39193764 0.14947029
-0.16234879 -0.39178331 0.14935620
-0.16237464 -0.39162899 0.14924211
-0.16240049 -0.39147466 0.14912802
-0.16242634 -0.39132033 0.14901392
-0.16245220 -0.39116600 0.14889983
-0.16247805 -0.39101168 0.14878574
-0.16250390 -0.39085735 0.14867165
-0.16252975 -0.39070302 0.14855756
-0.16255560 -0.39054869 0.14844347
-0.16258146 -0.39039436 0.14832938
-0.16260731 -0.39024004 0.14821529
-0.16263316 -0.39008571 0.14810120
-0.16265901 -0.38993138 0.14798711
-0.16268486 -0.38977705 0.14787302
-0.16271072 -0.38962272 0.14775893
-0.16273657 -0.38946840 0.14764484
-0.16276242 -0.38931407 0.14753075
-0.16278827 -0.38915974 0.14741666
-0.16281412 -0.38900541 0.14730257
-0.16283998 -0.38885109 0.14718848
-0.16286583 -0.38869676 0.14707439
-0.16289168 -0.38854243 0.14696030
-0.16291753 -0.38838810 0.14684621
-0.16294338 -0.38823377 0.14673212
-0.16296924 -0.38807945 0.14661803
-0.16299509 -0.38792512 0.14650394
-0.16302094 -0.38777079 0.14638985
-0.16304679 -0.38761646 0.14627576
-0.17182405 -0.39647608 0.11431209
-0.17185119 -0.39631407 0.11419232
-0.17187833 -0.39615206 0.11407255
-0.17190547 -0.39599005 0.11395279
-0.17193261 -0.39582804 0.11383302
-0.17195975 -0.39566603 0.11371325
-0.17198688 -0.39550403 0.11359348
-0.17201402 -0.39534202 0.11347371
-0.16524421 -0.37449860 0.13657807
-0.16527006 -0.37434427 0.13646398
-0.16529592 -0.37418994 0.13634989
-0.16532177 -0.37403562 0.13623580
-0.16534762 -0.37388129 0.13612171
-0.16537347 -0.37372696 0.13600762
-0.16539932 -0.37357263 0.13589353
-0.16542518 -0.37341831 0.13577944
-0.16545103 -0.37326398 0.13566535
-0.16547688 -0.37310965 0.13555126
-0.17570487 -0.37330890 0.09718522
-0.17573201 -0.37314690 0.09706545
-0.17575915 -0.37298489 0.09694568
-0.17578628 -0.37282288 0.09682591
-0.17581342 -0.37266087 0.09670615
-0.17584056 -0.37249886 0.09658638
-0.17586770 -0.37233685 0.09646661
-0.17589484 -0.37217485 0.09634684
-0.17605767 -0.37120280 0.09562823
-0.17608481 -0.37104079 0.09550846
-0.17611195 -0.37087878 0.09538870
-0.17613908 -0.37071677 0.09526893
-0.17706180 -0.36520849 0.09119680
-0.17708893 -0.36504649 0.09107703
-0.17711607 -0.36488448 0.09095727
-0.17714321 -0.36472247 0.09083750
-0.17717035 -0.36456046 0.09071773
-0.17719749 -0.36439845 0.09059796
-0.17722463 -0.36423645 0.09047819
-0.17725177 -0.36407444 0.09035843
-0.17727890 -0.36391243 0.09023866
-0.17730604 -0.36375042 0.09011889
-0.17733318 -0.36358841 0.08999912
-0.17736032 -0.36342640 0.08987935
-0.17738746 -0.36326440 0.08975958
-0.17741460 -0.36310239 0.08963981
-0.17744174 -0.36294038 0.08952005
-0.17746887 -0.36277837 0.08940028
-0.17749601 -0.36261636 0.08928051
-0.17752315 -0.36245435 0.08916074
-0.17755029 -0.36229235 0.08904097
-0.17757743 -0.36213034 0.08892121
-0.17760457 -0.36196833 0.08880144
-0.17763171 -0.36180632 0.08868167
-0.17765884 -0.36164431 0.08856190
-0.17768598 -0.36148231 0.08844213
-0.17771312 -0.36132030 0.08832236
-0.17761828 -0.36086647 0.08862816
-0.17764540 -0.36070459 0.08850848
-0.17770300 -0.36061555 0.08828244
-0.17782168 -0.36067226 0.08784329
-0.17784881 -0.36051026 0.08772352
-0.17787595 -0.36034825 0.08760375
-0.17790309 -0.36018624 0.08748399
-0.17793023 -0.36002423 0.08736422
-0.17795737 -0.35986223 0.08724445
-0.17798451 -0.35970022 0.08712468
-0.17801165 -0.35953821 0.08700491
-0.17803878 -0.35937620 0.08688514
-0.17806592 -0.35921419 0.08676538
-0.17809306 -0.35905218 0.08664561
-0.17812020 -0.35889017 0.08652584
-0.17814734 -0.35872817 0.08640607
-0.17817448 -0.35856616 0.08628630
-0.17820162 -0.35840415 0.08616653
-0.17822875 -0.35824214 0.08604676
-0.17825589 -0.35808014 0.08592700
-0.17828303 -0.35791813 0.08580723
-0.17831017 -0.35775612 0.08568746
-0.17833731 -0.35759411 0.08556769
-0.17836445 -0.35743210 0.08544792
-0.17839159 -0.35727009 0.08532816
-0.17841872 -0.35710808 0.08520839
-0.17844586 -0.35694608 0.08508862
-0.17847300 -0.35678407 0.08496885
-0.17850014 -0.35662206 0.08484908
-0.17852728 -0.35646005 0.08472931
-0.17855442 -0.35629805 0.08460955
-0.17858156 -0.35613604 0.08448978
-0.17860869 -0.35597403 0.08437001
-0.17863583 -0.35581202 0.08425024
-0.17866297 -0.35565001 0.08413047
-0.17869011 -0.35548800 0.08401070
-0.17871725 -0.35532599 0.08389094
-0.17874439 -0.35516399 0.08377117
-0.17877153 -0.35500198 0.08365140
-0.17879866 -0.35483997 0.08353163
-0.17882580 -0.35467796 0.08341186
-0.17885294 -0.35451595 0.08329209
-0.17888008 -0.35435395 0.08317233
-0.17890722 -0.35419194 0.08305256
-0.17893436 -0.35402993 0.08293279
-0.17896149 -0.35386792 0.08281302
-0.17888871 -0.35347358 0.08304258
-0.17890047 -0.35327596 0.08297662
-0.17891991 -0.35309622 0.08288382
-0.16132848 -0.42906819 0.15654472
-0.16134168 -0.42886756 0.15647311
-0.16138154 -0.42875141 0.15631054
-0.16142142 -0.42863520 0.15614799
-0.16146798 -0.42854012 0.15596260
-0.16152790 -0.42848718 0.15573165
-0.16156113 -0.42834982 0.15559171
-0.16126741 -0.42669738 0.15651350
-0.16137373 -0.42679094 0.15612431
-0.16142021 -0.42669572 0.15593926
-0.16144670 -0.42653756 0.15582234
-0.16149319 -0.42644228 0.15563724
-0.16153302 -0.42632603 0.15547480
-0.16157286 -0.42620974 0.15531235
-0.16161270 -0.42609343 0.15514987
-0.16165256 -0.42597712 0.15498733
-0.16075652 -0.41695898 0.15736208
-0.16073683 -0.41666065 0.15740325
-0.16076958 -0.41652452 0.15726524
-0.16270967 -0.41772372 0.15010847
-0.16274286 -0.41758625 0.14996867
-0.16276933 -0.41742825 0.14985186
-0.16278907 -0.41724973 0.14975806
-0.16282898 -0.41713270 0.14959527
-0.16289537 -0.41685765 0.14931559
-0.16354927 -0.41526277 0.14668360
-0.16362322 -0.41524754 0.14640419
-0.16364975 -0.41508916 0.14628711
-0.16227614 -0.40764971 0.15062952
-0.16233550 -0.40759248 0.15040023
-0.16238825 -0.40751536 0.15019360
-0.16247422 -0.40753743 0.14987303
-0.16251373 -0.40742056 0.14971175
-0.16125252 -0.39717214 0.15332308
-0.16127837 -0.39701782 0.15320899
-0.16130423 -0.39686349 0.15309490
-0.16133008 -0.39670916 0.15298081
-0.16135593 -0.39655483 0.15286672
-0.16138178 -0.39640051 0.15275263
-0.16140763 -0.39624618 0.15263854
-0.16143349 -0.39609185 0.15252445
-0.16145934 -0.39593752 0.15241036
-0.16148519 -0.39578319 0.15229627
-0.16151104 -0.39562887 0.15218218
-0.16153689 -0.39547454 0.15206809
-0.16156275 -0.39532021 0.15195400
-0.16158860 -0.39516588 0.15183991
-0.16161445 -0.39501156 0.15172582
-0.16164030 -0.39485723 0.15161173
-0.16166615 -0.39470290 0.15149764
-0.16169201 -0.39454857 0.15138355
-0.16171786 -0.39439424 0.15126946
-0.16174371 -0.39423992 0.15115536
-0.16176956 -0.39408559 0.15104127
-0.16179541 -0.39393126 0.15092718
-0.16182127 -0.39377693 0.15081309
-0.16184712 -0.39362261 0.15069900
-0.16187297 -0.39346828 0.15058491
-0.16189882 -0.39331395 0.15047082
-0.16192467 -0.39315962 0.15035673
-0.16195053 -0.39300529 0.15024264
-0.16197638 -0.39285097 0.15012855
-0.16200223 -0.39269664 0.15001446
-0.16202808 -0.39254231 0.14990037
-0.16205393 -0.39238798 0.14978628
-0.16207979 -0.39223366 0.14967219
-0.16210564 -0.39207933 0.14955810
-0.16213149 -0.39192500 0.14944401
-0.16215734 -0.39177067 0.14932992
-0.16218319 -0.39161634 0.14921583
-0.16220905 -0.39146202 0.14910174
-0.16223490 -0.39130769 0.14898765
-0.16226075 -0.39115336 0.14887356
-0.16228660 -0.39099903 0.14875947
-0.16231245 -0.39084470 0.14864537
-0.16233831 -0.39069038 0.14853128
-0.16236416 -0.39053605 0.14841719
-0.16239001 -0.39038172 0.14830310
-0.16241586 -0.39022739 0.14818901
-0.16244171 -0.39007306 0.14807492
-0.16246757 -0.38991874 0.14796083
-0.16249342 -0.38976441 0.14784674
-0.16251927 -0.38961008 0.14773265
-0.16254512 -0.38945575 0.14761856
-0.16257097 -0.38930143 0.14750447
-0.16259683 -0.38914710 0.14739038
-0.16262268 -0.38899277 0.14727629
-0.16264853 -0.38883844 0.14716220
-0.16267438 -0.38868412 0.14704811
-0.16270023 -0.38852979 0.14693402
-0.16272609 -0.38837546 0.14681993
-0.16275194 -0.38822113 0.14670584
-0.16277779 -0.38806680 0.14659175
-0.16280364 -0.38791248 0.14647766
-0.16282949 -0.38775815 0.14636357
-0.16285535 -0.38760382 0.14624948
-0.17162308 -0.39646280 0.11428450
-0.17165021 -0.39630079 0.11416474
-0.17167735 -0.39613879 0.11404497
-0.17170449 -0.39597678 0.11392520
-0.17173163 -0.39581477 0.11380543
-0.17175877 -0.39565276 0.11368566
-0.17178591 -0.39549075 0.11356589
-0.17181305 -0.39532875 0.11344613
-0.16510447 -0.37417730 0.13632361
-0.16513032 -0.37402297 0.13620952
-0.16515617 -0.37386865 0.13609543
-0.16518202 -0.37371432 0.13598134
-0.16520788 -0.37355999 0.13586725
-0.16523373 -0.37340566 0.13575316
-0.16525958 -0.37325133 0.13563907
-0.16528543 -0.37309701 0.13552498
-0.17553103 -0.37313362 0.09703787
-0.17555817 -0.37297161 0.09691810
-0.17558531 -0.37280961 0.09679833
-0.17561244 -0.37264760 0.09667856
-0.17563958 -0.37248559 0.09655879
-0.17566672 -0.37232358 0.09643902
-0.17569386 -0.37216157 0.09631925
-0.17572100 -0.37199957 0.09619949
-0.17574814 -0.37183756 0.09607972
-0.17577528 -0.37167555 0.09595995
-0.17582955 -0.37135153 0.09572041
-0.17585669 -0.37118952 0.09560064
-0.17588383 -0.37102752 0.09548088
-0.17591097 -0.37086551 0.09536111
-0.17686082 -0.36519522 0.09116922
-0.17688796 -0.36503321 0.09104945
-0.17691509 -0.36487120 0.09092968
-0.17694223 -0.36470920 0.09080991
-0.17696937 -0.36454719 0.09069014
-0.17699651 -0.36438518 0.09057037
-0.17702365 -0.36422317 0.09045061
-0.17705079 -0.36406117 0.09033084
-0.17707793 -0.36389916 0.09021107
-0.17710506 -0.36373715 0.09009130
-0.17713220 -0.36357514 0.08997153
-0.17715934 -0.36341313 0.08985177
-0.17718648 -0.36325112 0.08973200
-0.17721362 -0.36308911 0.08961223
-0.17724076 -0.36292711 0.08949246
-0.17726790 -0.36276510 0.08937269
-0.17729503 -0.36260309 0.08925292
-0.17732217 -0.36244108 0.08913315
-0.17734931 -0.36227908 0.08901339
-0.17737645 -0.36211707 0.08889362
-0.17740359 -0.36195506 0.08877385
-0.17743073 -0.36179305 0.08865408
-0.17745787 -0.36163104 0.08853431
-0.17748500 -0.36146903 0.08841455
-0.17751214 -0.36130702 0.08829478
-0.17741747 -0.36085321 0.08860059
-0.17744459 -0.36069133 0.08848092
-0.17750215 -0.36060228 0.08825488
-0.17762070 -0.36065899 0.08781570
-0.17764784 -0.36049699 0.08769594
-0.17767497 -0.36033498 0.08757617
-0.17770211 -0.36017297 0.08745640
-0.17772925 -0.36001096 0.08733663
-0.17775639 -0.35984895 0.08721686
-0.17778353 -0.35968694 0.08709709
-0.17781067 -0.35952493 0.08697733
-0.17783781 -0.35936293 0.08685756
-0.17786494 -0.35920092 0.08673779
-0.17789208 -0.35903891 0.08661802
-0.17791922 -0.35887690 0.08649825
-0.17794636 -0.35871490 0.08637849
-0.17797350 -0.35855289 0.08625872
-0.17800064 -0.35839088 0.08613895
-0.17802778 -0.35822887 0.08601918
-0.17805491 -0.35806686 0.08589941
-0.17808205 -0.35790485 0.08577964
-0.17810919 -0.35774284 0.08565987
-0.17813633 -0.35758084 0.08554010
-0.17816347 -0.35741883 0.08542034
-0.17819061 -0.35725682 0.08530057
-0.17821775 -0.35709481 0.08518080
-0.17824488 -0.35693280 0.08506103
-0.17827202 -0.35677080 0.08494126
-0.17829916 -0.35660879 0.08482150
-0.17832630 -0.35644678 0.08470173
-0.17835344 -0.35628477 0.08458196
-0.17838058 -0.35612276 0.08446219
-0.17840772 -0.35596075 0.08434242
-0.17843485 -0.35579875 0.08422265
-0.17846199 -0.35563674 0.08410289
-0.17848913 -0.35547473 0.08398312
-0.17851627 -0.35531272 0.08386335
-0.17854341 -0.35515071 0.08374358
-0.17857055 -0.35498871 0.08362381
-0.17859769 -0.35482670 0.08350404
-0.17862482 -0.35466469 0.08338428
-0.17865196 -0.35450268 0.08326451
-0.17867910 -0.35434068 0.08314474
-0.17870624 -0.35417867 0.08302497
-0.17873338 -0.35401666 0.08290520
-0.17876052 -0.35385465 0.08278544
-0.17870321 -0.35349601 0.08296133
-0.17871499 -0.35329841 0.08289532
-0.17872676 -0.35310081 0.08282938
-0.17870018 -0.35281412 0.08289773
-0.16116508 -0.42867512 0.15635179
-0.16120493 -0.42855896 0.15618920
-0.16124479 -0.42844274 0.15602665
-0.16111120 -0.42681024 0.15635048
-0.16117757 -0.42677799 0.15609739
-0.16121736 -0.42666178 0.15593506
-0.16125050 -0.42652461 0.15579541
-0.16127699 -0.42636645 0.15567848
-0.16133011 -0.42629211 0.15547062
-0.16137659 -0.42619678 0.15528541
-0.16140976 -0.42605952 0.15514569
-0.16252038 -0.41773131 0.15005857
-0.16255355 -0.41759380 0.14991881
-0.16258002 -0.41743578 0.14980200
-0.16259979 -0.41725729 0.14970814
-0.16333260 -0.41518844 0.14672624
-0.16339292 -0.41513233 0.14649324
-0.16341944 -0.41497400 0.14637619
-0.16205591 -0.40779331 0.15071852
-0.16210197 -0.40769642 0.15053471
-0.16215467 -0.40761934 0.15032811
-0.16221402 -0.40756205 0.15009870
-0.16229330 -0.40756429 0.14980083
-0.16236600 -0.40754670 0.14952552
-0.16239223 -0.40739009 0.14940974
-0.16106107 -0.39715950 0.15329680
-0.16108693 -0.39700517 0.15318271
-0.16111278 -0.39685085 0.15306862
-0.16113863 -0.39669652 0.15295453
-0.16116448 -0.39654219 0.15284044
-0.16119033 -0.39638786 0.15272635
-0.16121619 -0.39623353 0.15261226
-0.16124204 -0.39607921 0.15249817
-0.16126789 -0.39592488 0.15238408
-0.16129374 -0.39577055 0.15226999
-0.16131959 -0.39561622 0.15215590
-0.16134545 -0.39546190 0.15204181
-0.16137130 -0.39530757 0.15192772
-0.16139715 -0.39515324 0.15181363
-0.16142300 -0.39499891 0.15169954
-0.16144885 -0.39484458 0.15158545
-0.16147471 -0.39469026 0.15147136
-0.16150056 -0.39453593 0.15135727
-0.16152641 -0.39438160 0.15124318
-0.16155226 -0.39422727 0.15112909
-0.16157811 -0.39407295 0.15101500
-0.16160397 -0.39391862 0.15090090
-0.16162982 -0.39376429 0.15078681
-0.16165567 -0.39360996 0.15067272
-0.16168152 -0.39345563 0.15055863
-0.16170737 -0.39330131 0.15044454
-0.16173323 -0.39314698 0.15033045
-0.16175908 -0.39299265 0.15021636
-0.16178493 -0.39283832 0.15010227
-0.16181078 -0.39268400 0.14998818
-0.16183663 -0.39252967 0.14987409
-0.16186249 -0.39237534 0.14976000
-0.16188834 -0.39222101 0.14964591
-0.16191419 -0.39206668 0.14953182
-0.16194004 -0.39191236 0.14941773
-0.16196589 -0.39175803 0.14930364
-0.16199175 -0.39160370 0.14918955
-0.16201760 -0.39144937 0.14907546
-0.16204345 -0.39129504 0.14896137
-0.16206930 -0.39114072 0.14884728
-0.16209515 -0.39098639 0.14873319
-0.16212101 -0.39083206 0.14861910
-0.16214686 -0.39067773 0.14850501
-0.16217271 -0.39052341 0.14839092
-0.16219856 -0.39036908 0.14827683
-0.16222441 -0.39021475 0.14816274
-0.16225027 -0.39006042 0.14804864
-0.16227612 -0.38990609 0.14793455
-0.16230197 -0.38975177 0.14782046
-0.16232782 -0.38959744 0.14770637
-0.16235367 -0.38944311 0.14759228
-0.16237953 -0.38928878 0.14747819
-0.16240538 -0.38913446 0.14736410
-0.16243123 -0.38898013 0.14725001
-0.16245708 -0.38882580 0.14713592
-0.16248293 -0.38867147 0.14702183
-0.16250879 -0.38851714 0.14690774
-0.16253464 -0.38836282 0.14679365
-0.16256049 -0.38820849 0.14667956
-0.16258634 -0.38805416 0.14656547
-0.16645517 -0.39230672 0.13248188
-0.16648849 -0.39216822 0.13234147
-0.17142210 -0.39644953 0.11425692
-0.17144924 -0.39628752 0.11413715
-0.17147638 -0.39612551 0.11401738
-0.17150352 -0.39596351 0.11389761
-0.17153066 -0.39580150 0.11377784
-0.17155780 -0.39563949 0.11365808
-0.17158494 -0.39547748 0.11353831
-0.17161207 -0.39531547 0.11341854
-0.16493887 -0.37401033 0.13618324
-0.16496473 -0.37385600 0.13606915
-0.16499058 -0.37370168 0.13595506
-0.16501643 -0.37354735 0.13584097
-0.16504228 -0.37339302 0.13572688
-0.16506813 -0.37323869 0.13561279
-0.16509399 -0.37308436 0.13549870
-0.17535720 -0.37295834 0.09689051
-0.17538433 -0.37279634 0.09677074
-0.17541147 -0.37263433 0.09665097
-0.17543861 -0.37247232 0.09653121
-0.17546575 -0.37231031 0.09641144
-0.17549289 -0.37214830 0.09629167
-0.17552003 -0.37198629 0.09617190
-0.17554717 -0.37182429 0.09605213
-0.17557430 -0.37166228 0.09593236
-0.17560144 -0.37150027 0.09581260
-0.17562858 -0.37133826 0.09569283
-0.17565572 -0.37117625 0.09557306
-0.17568286 -0.37101425 0.09545329
-0.17665985 -0.36518195 0.09114163
-0.17668699 -0.36501994 0.09102186
-0.17671412 -0.36485793 0.09090209
-0.17674126 -0.36469593 0.09078233
-0.17676840 -0.36453392 0.09066256
-0.17679554 -0.36437191 0.09054279
-0.17682268 -0.36420990 0.09042302
-0.17684982 -0.36404789 0.09030325
-0.17687696 -0.36388588 0.09018348
-0.17690409 -0.36372388 0.09006372
-0.17693123 -0.36356187 0.08994395
-0.17695837 -0.36339986 0.08982418
-0.17698551 -0.36323785 0.08970441
-0.17701265 -0.36307584 0.08958464
-0.17703979 -0.36291384 0.08946488
-0.17706692 -0.36275183 0.08934511
-0.17709406 -0.36258982 0.08922534
-0.17712120 -0.36242781 0.08910557
-0.17714834 -0.36226580 0.08898580
-0.17717548 -0.36210379 0.08886603
-0.17720262 -0.36194179 0.08874626
-0.17722976 -0.36177978 0.08862650
-0.17725689 -0.36161777 0.08850673
-0.17728403 -0.36145576 0.08838696
-0.17723512 -0.36111124 0.08853322
-0.17720906 -0.36082175 0.08859958
-0.17723617 -0.36065988 0.08847991
-0.17729369 -0.36057084 0.08825386
-0.17741973 -0.36064572 0.08778812
-0.17744686 -0.36048371 0.08766835
-0.17747400 -0.36032170 0.08754858
-0.17750114 -0.36015970 0.08742881
-0.17752828 -0.35999769 0.08730904
-0.17755542 -0.35983568 0.08718928
-0.17758256 -0.35967367 0.08706951
-0.17760970 -0.35951166 0.08694974
-0.17763684 -0.35934965 0.08682997
-0.17766397 -0.35918765 0.08671020
-0.17769111 -0.35902564 0.08659044
-0.17771825 -0.35886363 0.08647067
-0.17774539 -0.35870162 0.08635090
-0.17777253 -0.35853961 0.08623113
-0.17779967 -0.35837761 0.08611136
-0.17782680 -0.35821560 0.08599159
-0.17785394 -0.35805359 0.08587183
-0.17788108 -0.35789158 0.08575206
-0.17790822 -0.35772957 0.08563229
-0.17793536 -0.35756756 0.08551252
-0.17796250 -0.35740556 0.08539275
-0.17798964 -0.35724355 0.08527298
-0.17801677 -0.35708154 0.08515321
-0.17804391 -0.35691953 0.08503345
-0.17807105 -0.35675752 0.08491368
-0.17809819 -0.35659552 0.08479391
-0.17812533 -0.35643351 0.08467414
-0.17815247 -0.35627150 0.08455437
-0.17817961 -0.35610949 0.08443461
-0.17820674 -0.35594748 0.08431484
-0.17823388 -0.35578547 0.08419507
-0.17826102 -0.35562347 0.08407530
-0.17828816 -0.35546146 0.08395553
-0.17831530 -0.35529945 0.08383576
-0.17834244 -0.35513744 0.08371599
-0.17836958 -0.35497543 0.08359623
-0.17839671 -0.35481343 0.08347646
-0.17842385 -0.35465142 0.08335669
-0.17845099 -0.35448941 0.08323692
-0.17847813 -0.35432740 0.08311716
-0.17850527 -0.35416540 0.08299739
-0.17853241 -0.35400339 0.08287762
-0.17855955 -0.35384138 0.08275785
-0.17851768 -0.35351848 0.08288002
-0.17852947 -0.35332083 0.08281405
-0.17852594 -0.35308754 0.08280181
-0.17852241 -0.35285436 0.08278957
-0.17851888 -0.35262123 0.08277737
-0.16091509 -0.42679729 0.15632356
-0.16098803 -0.42678599 0.15604778
-0.16102781 -0.42666981 0.15588540
-0.16106095 -0.42653259 0.15574578
-0.16108744 -0.42637443 0.15562886
-0.16113388 -0.42627915 0.15544368
-0.16116038 -0.42612095 0.15532673
-0.16135983 -0.41476299 0.15334094
-0.16235753 -0.41758085 0.14989191
-0.16238400 -0.41742284 0.14977509
-0.16311599 -0.41511420 0.14676880
-0.16319651 -0.41511936 0.14646628
-0.16322303 -0.41496103 0.14634923
-0.16184890 -0.40797659 0.15076212
-0.16188171 -0.40784003 0.15062372
-0.16192114 -0.40772329 0.15046261
-0.16196719 -0.40762634 0.15027876
-0.16201987 -0.40754923 0.15007206
-0.16209908 -0.40755147 0.14977417
-0.16213194 -0.40741478 0.14963561
-0.16223113 -0.40747655 0.14926897
-0.16086963 -0.39714686 0.15327053
-0.16089549 -0.39699253 0.15315644
-0.16092134 -0.39683820 0.15304235
-0.16094719 -0.39668388 0.15292826
-0.16097304 -0.39652955 0.15281417
-0.16099889 -0.39637522 0.15270007
-0.16102475 -0.39622089 0.15258598
-0.16105060 -0.39606656 0.15247189
-0.16107645 -0.39591224 0.15235780
-0.16110230 -0.39575791 0.15224371
-0.16112815 -0.39560358 0.15212962
-0.16115401 -0.39544925 0.15201553
-0.16117986 -0.39529493 0.15190144
-0.16120571 -0.39514060 0.15178735
-0.16123156 -0.39498627 0.15167326
-0.16125741 -0.39483194 0.15155917
-0.16128327 -0.39467761 0.15144508
-0.16130912 -0.39452329 0.15133099
-0.16133497 -0.39436896 0.15121690
-0.16136082 -0.39421463 0.15110281
-0.16138667 -0.39406030 0.15098872
-0.16141253 -0.39390597 0.15087463
-0.16143838 -0.39375165 0.15076054
-0.16146423 -0.39359732 0.15064645
-0.16149008 -0.39344299 0.15053236
-0.16151593 -0.39328866 0.15041827
-0.16154179 -0.39313434 0.15030418
-0.16156764 -0.39298001 0.15019009
-0.16159349 -0.39282568 0.15007600
-0.16161934 -0.39267135 0.14996191
-0.16164519 -0.39251702 0.14984781
-0.16167105 -0.39236270 0.14973372
-0.16169690 -0.39220837 0.14961963
-0.16172275 -0.39205404 0.14950554
-0.16174860 -0.39189971 0.14939145
-0.16177445 -0.39174538 0.14927736
-0.16180031 -0.39159106 0.14916327
-0.16182616 -0.39143673 0.14904918
-0.16185201 -0.39128240 0.14893509
-0.16187786 -0.39112807 0.14882100
-0.16190371 -0.39097375 0.14870691
-0.16192957 -0.39081942 0.14859282
-0.16195542 -0.39066509 0.14847873
-0.16198127 -0.39051076 0.14836464
-0.16200712 -0.39035643 0.14825055
-0.16203297 -0.39020211 0.14813646
-0.16205883 -0.39004778 0.14802237
-0.16208468 -0.38989345 0.14790828
-0.16211053 -0.38973912 0.14779419
-0.16213638 -0.38958480 0.14768010
-0.16216223 -0.38943047 0.14756601
-0.16218809 -0.38927614 0.14745192
-0.16221394 -0.38912181 0.14733783
-0.16223979 -0.38896749 0.14722373
-0.16226564 -0.38881316 0.14710964
-0.16229149 -0.38865883 0.14699555
-0.16231735 -0.38850450 0.14688146
-0.16234320 -0.38835017 0.14676737
-0.16236905 -0.38819585 0.14665328
-0.16626634 -0.39231306 0.13243124
-0.16631341 -0.39221310 0.13224318
-0.16633985 -0.39205531 0.13212653
-0.16634563 -0.39183975 0.13208133
-0.17130254 -0.39595023 0.11387003
-0.17132968 -0.39578823 0.11375026
-0.17135682 -0.39562622 0.11363049
-0.17138396 -0.39546421 0.11351072
-0.16474743 -0.37399769 0.13615696
-0.16477329 -0.37384336 0.13604287
-0.16479914 -0.37368903 0.13592878
-0.16482499 -0.37353470 0.13581469
-0.16485084 -0.37338038 0.13570060
-0.16487669 -0.37322605 0.13558651
-0.17518336 -0.37278306 0.09674316
-0.17521049 -0.37262105 0.09662339
-0.17523763 -0.37245905 0.09650362
-0.17526477 -0.37229704 0.09638385
-0.17529191 -0.37213503 0.09626408
-0.17531905 -0.37197302 0.09614431
-0.17534619 -0.37181101 0.09602455
-0.17537333 -0.37164901 0.09590478
-0.17540046 -0.37148700 0.09578501
-0.17542760 -0.37132499 0.09566524
-0.17545474 -0.37116298 0.09554547
-0.17631079 -0.36503557 0.09165698
-0.17645887 -0.36516868 0.09111404
-0.17648601 -0.36500667 0.09099428
-0.17651315 -0.36484466 0.09087451
-0.17654028 -0.36468265 0.09075474
-0.17656742 -0.36452064 0.09063497
-0.17659456 -0.36435864 0.09051520
-0.17662170 -0.36419663 0.09039544
-0.17664884 -0.36403462 0.09027567
-0.17667598 -0.36387261 0.09015590
-0.17670312 -0.36371060 0.09003613
-0.17673025 -0.36354860 0.08991636
-0.17675739 -0.36338659 0.08979659
-0.17678453 -0.36322458 0.08967682
-0.17681167 -0.36306257 0.08955706
-0.17683881 -0.36290056 0.08943729
-0.17686595 -0.36273855 0.08931752
-0.17689309 -0.36257655 0.08919775
-0.17692022 -0.36241454 0.08907798
-0.17694736 -0.36225253 0.08895822
-0.17697450 -0.36209052 0.08883845
-0.17700164 -0.36192851 0.08871868
-0.17702878 -0.36176650 0.08859891
-0.17705592 -0.36160450 0.08847914
-0.17708306 -0.36144249 0.08835937
-0.17695838 -0.36091567 0.08877140
-0.17698549 -0.36075382 0.08865175
-0.17703537 -0.36064662 0.08845235
-0.17709285 -0.36055757 0.08822630
-0.17721875 -0.36063245 0.08776053
-0.17724589 -0.36047044 0.08764076
-0.17727303 -0.36030843 0.08752100
-0.17730016 -0.36014642 0.08740123
-0.17732730 -0.35998441 0.08728146
-0.17735444 -0.35982241 0.08716169
-0.17738158 -0.35966040 0.08704192
-0.17740872 -0.35949839 0.08692215
-0.17743586 -0.35933638 0.08680238
-0.17746299 -0.35917438 0.08668262
-0.17749013 -0.35901237 0.08656285
-0.17751727 -0.35885036 0.08644308
-0.17754441 -0.35868835 0.08632331
-0.17757155 -0.35852634 0.08620354
-0.17759869 -0.35836433 0.08608378
-0.17762583 -0.35820232 0.08596401
-0.17765296 -0.35804032 0.08584424
-0.17768010 -0.35787831 0.08572447
-0.17770724 -0.35771630 0.08560470
-0.17773438 -0.35755429 0.08548493
-0.17776152 -0.35739229 0.08536517
-0.17778866 -0.35723028 0.08524540
-0.17781580 -0.35706827 0.08512563
-0.17784294 -0.35690626 0.08500586
-0.17787007 -0.35674425 0.08488609
-0.17789721 -0.35658224 0.08476632
-0.17792435 -0.35642023 0.08464655
-0.17795149 -0.35625823 0.08452679
-0.17797863 -0.35609622 0.08440702
-0.17800577 -0.35593421 0.08428725
-0.17803291 -0.35577220 0.08416748
-0.17806004 -0.35561020 0.08404771
-0.17808718 -0.35544819 0.08392795
-0.17811432 -0.35528618 0.08380818
-0.17814146 -0.35512417 0.08368841
-0.17816860 -0.35496216 0.08356864
-0.17819574 -0.35480015 0.08344887
-0.17822287 -0.35463814 0.08332910
-0.17825001 -0.35447614 0.08320933
-0.17827715 -0.35431413 0.08308957
-0.17830429 -0.35415212 0.08296980
-0.17833143 -0.35399011 0.08285003
-0.17835857 -0.35382811 0.08273026
-0.17838571 -0.35366610 0.08261050
-0.17841284 -0.35350409 0.08249073
-0.17837104 -0.35318134 0.08261302
-0.17834458 -0.35289455 0.08268145
-0.17834873 -0.35267924 0.08264235
-0.16077860 -0.42673109 0.15606626
-0.16083161 -0.42665685 0.15585847
-0.16086474 -0.42651963 0.15571885
-0.16088460 -0.42634053 0.15562462
-0.15975937 -0.42254645 0.15945394
-0.15978564 -0.42238962 0.15933799
-0.15980539 -0.42221220 0.15924442
-0.16098093 -0.41489693 0.15402431
-0.16102036 -0.41478061 0.15386314
-0.16107957 -0.41472493 0.15363403
-0.16116518 -0.41475014 0.15331422
-0.16291964 -0.41510123 0.14674185
-0.16300009 -0.41510639 0.14643932
-0.16302661 -0.41494806 0.14632227
-0.16163525 -0.40814008 0.15082838
-0.16166805 -0.40800349 0.15069003
-0.16170086 -0.40786692 0.15055163
-0.16173367 -0.40773030 0.15041326
-0.16177970 -0.40763338 0.15022935
-0.16182574 -0.40753641 0.15004541
-0.16190487 -0.40753864 0.14974752
-0.16193772 -0.40740195 0.14960895
-0.16203681 -0.40746371 0.14924230
-0.16067819 -0.39713422 0.15324425
-0.16070404 -0.39697989 0.15313016
-0.16072989 -0.39682556 0.15301607
-0.16075574 -0.39667123 0.15290198
-0.16078160 -0.39651691 0.15278789
-0.16080745 -0.39636258 0.15267380
-0.16083330 -0.39620825 0.15255971
-0.16085915 -0.39605392 0.15244562
-0.16088500 -0.39589959 0.15233153
-0.16091086 -0.39574527 0.15221744
-0.16093671 -0.39559094 0.15210334
-0.16096256 -0.39543661 0.15198925
-0.16098841 -0.39528228 0.15187516
-0.16101426 -0.39512795 0.15176107
-0.16104012 -0.39497363 0.15164698
-0.16106597 -0.39481930 0.15153289
-0.16109182 -0.39466497 0.15141880
-0.16111767 -0.39451064 0.15130471
-0.16114352 -0.39435632 0.15119062
-0.16116938 -0.39420199 0.15107653
-0.16119523 -0.39404766 0.15096244
-0.16122108 -0.39389333 0.15084835
-0.16124693 -0.39373900 0.15073426
-0.16127278 -0.39358468 0.15062017
-0.16129864 -0.39343035 0.15050608
-0.16132449 -0.39327602 0.15039199
-0.16135034 -0.39312169 0.15027790
-0.16137619 -0.39296736 0.15016381
-0.16140204 -0.39281304 0.15004972
-0.16142790 -0.39265871 0.14993563
-0.16145375 -0.39250438 0.14982154
-0.16155716 -0.39188707 0.14936517
-0.16158301 -0.39173274 0.14925108
-0.16160886 -0.39157841 0.14913699
-0.16163471 -0.39142409 0.14902290
-0.16166056 -0.39126976 0.14890881
-0.16168642 -0.39111543 0.14879472
-0.16171227 -0.39096110 0.14868063
-0.16173812 -0.39080678 0.14856654
-0.16176397 -0.39065245 0.14845245
-0.16178982 -0.39049812 0.14833836
-0.16181568 -0.39034379 0.14822427
-0.16184153 -0.39018946 0.14811018
-0.16186738 -0.39003514 0.14799609
-0.16189323 -0.38988081 0.14788200
-0.16191908 -0.38972648 0.14776791
-0.16194494 -0.38957215 0.14765382
-0.16197079 -0.38941783 0.14753973
-0.16199664 -0.38926350 0.14742564
-0.16202249 -0.38910917 0.14731155
-0.16204834 -0.38895484 0.14719746
-0.16207420 -0.38880051 0.14708337
-0.16210005 -0.38864619 0.14696928
-0.16212590 -0.38849186 0.14685519
-0.16215175 -0.38833753 0.14674109
-0.16217760 -0.38818320 0.14662700
-0.16607062 -0.39230014 0.13240437
-0.16612454 -0.39221943 0.13219252
-0.16619910 -0.39219652 0.13190910
-0.16623931 -0.39207719 0.13174475
-0.16617634 -0.39166905 0.13193783
-0.17110157 -0.39593696 0.11384244
-0.17112871 -0.39577495 0.11372267
-0.17115585 -0.39561295 0.11360290
-0.17118299 -0.39545094 0.11348314
-0.16453013 -0.37413937 0.13624478
-0.16455599 -0.37398505 0.13613069
-0.16458184 -0.37383072 0.13601660
-0.16460769 -0.37367639 0.13590251
-0.16463354 -0.37352206 0.13578841
-0.16465939 -0.37336773 0.13567432
-0.16468525 -0.37321341 0.13556023
-0.17346930 -0.37907530 0.10309826
-0.17361494 -0.37921928 0.10256510
-0.17364204 -0.37905749 0.10244550
-0.17377307 -0.37916330 0.10196325
-0.17503666 -0.37244577 0.09647603
-0.17506380 -0.37228377 0.09635626
-0.17509094 -0.37212176 0.09623650
-0.17511808 -0.37195975 0.09611673
-0.17514522 -0.37179774 0.09599696
-0.17517235 -0.37163573 0.09587719
-0.17519949 -0.37147372 0.09575742
-0.17522663 -0.37131172 0.09563766
-0.17610997 -0.36502231 0.09162942
-0.17625790 -0.36515541 0.09108646
-0.17628504 -0.36499340 0.09096669
-0.17631217 -0.36483139 0.09084692
-0.17633931 -0.36466938 0.09072715
-0.17636645 -0.36450737 0.09060739
-0.17639359 -0.36434536 0.09048762
-0.17642073 -0.36418336 0.09036785
-0.17644787 -0.36402135 0.09024808
-0.17647501 -0.36385934 0.09012831
-0.17650214 -0.36369733 0.09000854
-0.17652928 -0.36353532 0.08988878
-0.17655642 -0.36337332 0.08976901
-0.17658356 -0.36321131 0.08964924
-0.17661070 -0.36304930 0.08952947
-0.17663784 -0.36288729 0.08940970
-0.17666498 -0.36272528 0.08928993
-0.17669211 -0.36256327 0.08917017
-0.17671925 -0.36240126 0.08905040
-0.17674639 -0.36223926 0.08893063
-0.17677353 -0.36207725 0.08881086
-0.17680067 -0.36191524 0.08869109
-0.17682781 -0.36175323 0.08857132
-0.17685495 -0.36159123 0.08845156
-0.17688208 -0.36142922 0.08833179
-0.17682579 -0.36106647 0.08850467
-0.17679987 -0.36077699 0.08857105
-0.17686489 -0.36070622 0.08831842
-0.17690717 -0.36058071 0.08814556
-0.17701778 -0.36061917 0.08773295
-0.17704492 -0.36045717 0.08761318
-0.17707205 -0.36029516 0.08749341
-0.17709919 -0.36013315 0.08737364
-0.17712633 -0.35997114 0.08725387
-0.17715347 -0.35980914 0.08713411
-0.17718061 -0.35964713 0.08701434
-0.17720775 -0.35948512 0.08689457
-0.17723489 -0.35932311 0.08677480
-0.17726202 -0.35916110 0.08665503
-0.17728916 -0.35899909 0.08653526
-0.17731630 -0.35883709 0.08641549
-0.17734344 -0.35867508 0.08629573
-0.17737058 -0.35851307 0.08617596
-0.17739772 -0.35835106 0.08605619
-0.17742486 -0.35818905 0.08593642
-0.17745199 -0.35802705 0.08581665
-0.17747913 -0.35786504 0.08569688
-0.17750627 -0.35770303 0.08557712
-0.17753341 -0.35754102 0.08545735
-0.17756055 -0.35737901 0.08533758
-0.17758769 -0.35721700 0.08521781
-0.17761483 -0.35705500 0.08509804
-0.17764196 -0.35689299 0.08497827
-0.17766910 -0.35673098 0.08485851
-0.17769624 -0.35656897 0.08473874
-0.17772338 -0.35640696 0.08461897
-0.17775052 -0.35624496 0.08449920
-0.17777766 -0.35608295 0.08437943
-0.17780480 -0.35592094 0.08425966
-0.17783193 -0.35575893 0.08413990
-0.17785907 -0.35559692 0.08402013
-0.17788621 -0.35543491 0.08390036
-0.17791335 -0.35527291 0.08378059
-0.17794049 -0.35511090 0.08366082
-0.17796763 -0.35494889 0.08354106
-0.17799477 -0.35478688 0.08342129
-0.17802190 -0.35462487 0.08330152
-0.17804904 -0.35446286 0.08318175
-0.17807618 -0.35430086 0.08306198
-0.17810332 -0.35413885 0.08294222
-0.17813046 -0.35397684 0.08282245
-0.17815760 -0.35381483 0.08270268
-0.17818473 -0.35365283 0.08258291
-0.17821187 -0.35349082 0.08246314
-0.17823901 -0.35332881 0.08234337
-0.17819728 -0.35300614 0.08246573
-0.17817088 -0.35271941 0.08253421
-0.17819799 -0.35255753 0.08241454
-0.15951206 -0.42308664 0.15968564
-0.15953833 -0.42292978 0.15956968
-0.15954506 -0.42271109 0.15952077
-0.15956481 -0.42253361 0.15942723
-0.15958457 -0.42235618 0.15933365
-0.15961084 -0.42219935 0.15921771
-0.15966357 -0.42164665 0.15895940
-0.15968984 -0.42148985 0.15884349
-0.16074702 -0.41500042 0.15415872
-0.16079957 -0.41492456 0.15395236
-0.16085873 -0.41486893 0.15372327
-0.16089816 -0.41475253 0.15356205
-0.16273003 -0.41510867 0.14669174
-0.16281715 -0.41513431 0.14636595
-0.16285041 -0.41499639 0.14622567
-0.16287020 -0.41481761 0.14613182
-0.16288999 -0.41463884 0.14603798
-0.16291651 -0.41448050 0.14592093
-0.16294303 -0.41432216 0.14580387
-0.16292910 -0.41404147 0.14582622
-0.16142816 -0.40832345 0.15087196
-0.16145437 -0.40816700 0.15075630
-0.16148717 -0.40803039 0.15061794
-0.16151338 -0.40787394 0.15050228
-0.16155937 -0.40777703 0.15031838
-0.16159878 -0.40766023 0.15015722
-0.16167122 -0.40764268 0.14988214
-0.16171727 -0.40754569 0.14969804
-0.16174349 -0.40738913 0.14958229
-0.16185571 -0.40749057 0.14917001
-0.16048674 -0.39712157 0.15321797
-0.16051259 -0.39696725 0.15310388
-0.16053844 -0.39681292 0.15298979
-0.16056430 -0.39665859 0.15287570
-0.16059015 -0.39650426 0.15276161
-0.16061600 -0.39634993 0.15264752
-0.16064185 -0.39619561 0.15253343
-0.16066770 -0.39604128 0.15241934
-0.16069356 -0.39588695 0.15230525
-0.16071941 -0.39573262 0.15219116
-0.16074526 -0.39557829 0.15207707
-0.16077111 -0.39542397 0.15196298
-0.16079696 -0.39526964 0.15184889
-0.16082282 -0.39511531 0.15173479
-0.16084867 -0.39496098 0.15162070
-0.16087452 -0.39480666 0.15150661
-0.16090037 -0.39465233 0.15139252
-0.16092622 -0.39449800 0.15127843
-0.16095208 -0.39434367 0.15116434
-0.16097793 -0.39418934 0.15105025
-0.16100378 -0.39403502 0.15093616
-0.16102963 -0.39388069 0.15082207
-0.16105548 -0.39372636 0.15070798
-0.16108134 -0.39357203 0.15059389
-0.16110719 -0.39341770 0.15047980
-0.16113304 -0.39326338 0.15036571
-0.16115889 -0.39310905 0.15025162
-0.16118474 -0.39295472 0.15013753
-0.16139156 -0.39172010 0.14922481
-0.16141741 -0.39156577 0.14911071
-0.16144326 -0.39141144 0.14899662
-0.16146912 -0.39125712 0.14888253
-0.16149497 -0.39110279 0.14876844
-0.16152082 -0.39094846 0.14865435
-0.16154667 -0.39079413 0.14854026
-0.16157252 -0.39063980 0.14842617
-0.16159838 -0.39048548 0.14831208
-0.16162423 -0.39033115 0.14819799
-0.16165008 -0.39017682 0.14808390
-0.16167593 -0.39002249 0.14796981
-0.16170178 -0.38986817 0.14785572
-0.16172764 -0.38971384 0.14774163
-0.16175349 -0.38955951 0.14762754
-0.16177934 -0.38940518 0.14751345
-0.16180519 -0.38925085 0.14739936
-0.16183104 -0.38909653 0.14728527
-0.16185690 -0.38894220 0.14717118
-0.16188275 -0.38878787 0.14705709
-0.16190860 -0.38863354 0.14694300
-0.16193445 -0.38847922 0.14682891
-0.16196030 -0.38832489 0.14671482
-0.16590235 -0.39236430 0.13228231
-0.16597684 -0.39234144 0.13199892
-0.16603076 -0.39226070 0.13178689
-0.16605721 -0.39210281 0.13167017
-0.16608365 -0.39194493 0.13155345
-0.16610323 -0.39176778 0.13146059
-0.16615030 -0.39166767 0.13127228
-0.16617675 -0.39150977 0.13115554
-0.17084632 -0.39624771 0.11405439
-0.17087346 -0.39608570 0.11393462
-0.17090060 -0.39592369 0.11381486
-0.17092774 -0.39576168 0.11369509
-0.17095488 -0.39559967 0.11357532
-0.16436454 -0.37397240 0.13610441
-0.16439039 -0.37381807 0.13599032
-0.16441624 -0.37366375 0.13587623
-0.16444210 -0.37350942 0.13576214
-0.16446795 -0.37335509 0.13564805
-0.17338713 -0.37936782 0.10265716
-0.17351057 -0.37945470 0.10220098
-0.17364159 -0.37956086 0.10171825
-0.17366873 -0.37939885 0.10159849
-0.17369587 -0.37923685 0.10147872
-0.17499852 -0.37146045 0.09572984
-0.17590917 -0.36500905 0.09160186
-0.17605693 -0.36514213 0.09105887
-0.17608406 -0.36498012 0.09093910
-0.17611120 -0.36481812 0.09081934
-0.17613834 -0.36465611 0.09069957
-0.17616548 -0.36449410 0.09057980
-0.17619262 -0.36433209 0.09046003
-0.17621976 -0.36417009 0.09034026
-0.17624690 -0.36400808 0.09022050
-0.17627403 -0.36384607 0.09010073
-0.17630117 -0.36368406 0.08998096
-0.17632831 -0.36352205 0.08986119
-0.17635545 -0.36336004 0.08974142
-0.17638259 -0.36319803 0.08962165
-0.17640973 -0.36303603 0.08950188
-0.17643687 -0.36287402 0.08938212
-0.17646400 -0.36271201 0.08926235
-0.17649114 -0.36255000 0.08914258
-0.17651828 -0.36238799 0.08902281
-0.17654542 -0.36222599 0.08890304
-0.17657256 -0.36206398 0.08878328
-0.17659970 -0.36190197 0.08866351
-0.17662684 -0.36173996 0.08854374
-0.17665397 -0.36157795 0.08842397
-0.17668111 -0.36141594 0.08830420
-0.17670825 -0.36125394 0.08818443
-0.17665206 -0.36089128 0.08835739
-0.17667918 -0.36072936 0.08823769
-0.17678967 -0.36076791 0.08782513
-0.17681681 -0.36060590 0.08770536
-0.17684394 -0.36044390 0.08758559
-0.17687108 -0.36028189 0.08746582
-0.17689822 -0.36011988 0.08734606
-0.17692536 -0.35995787 0.08722629
-0.17695250 -0.35979586 0.08710652
-0.17697964 -0.35963385 0.08698675
-0.17700678 -0.35947185 0.08686698
-0.17703391 -0.35930984 0.08674721
-0.17706105 -0.35914783 0.08662745
-0.17708819 -0.35898582 0.08650768
-0.17711533 -0.35882381 0.08638791
-0.17714247 -0.35866181 0.08626814
-0.17716961 -0.35849980 0.08614837
-0.17719675 -0.35833779 0.08602860
-0.17722388 -0.35817578 0.08590883
-0.17725102 -0.35801377 0.08578907
-0.17727816 -0.35785177 0.08566930
-0.17730530 -0.35768976 0.08554953
-0.17733244 -0.35752775 0.08542976
-0.17735958 -0.35736574 0.08530999
-0.17738672 -0.35720373 0.08519023
-0.17741385 -0.35704172 0.08507046
-0.17744099 -0.35687971 0.08495069
-0.17746813 -0.35671771 0.08483092
-0.17749527 -0.35655570 0.08471115
-0.17752241 -0.35639369 0.08459138
-0.17754955 -0.35623168 0.08447162
-0.17757669 -0.35606968 0.08435185
-0.17760382 -0.35590767 0.08423208
-0.17763096 -0.35574566 0.08411231
-0.17765810 -0.35558365 0.08399254
-0.17768524 -0.35542164 0.08387277
-0.17771238 -0.35525963 0.08375301
-0.17773952 -0.35509762 0.08363324
-0.17776666 -0.35493562 0.08351347
-0.17779379 -0.35477361 0.08339370
-0.17782093 -0.35461160 0.08327393
-0.17784807 -0.35444959 0.08315416
-0.17787521 -0.35428759 0.08303440
-0.17790235 -0.35412558 0.08291463
-0.17792949 -0.35396357 0.08279486
-0.17795663 -0.35380156 0.08267509
-0.17798376 -0.35363956 0.08255533
-0.17801090 -0.35347755 0.08243556
-0.17803804 -0.35331554 0.08231579
-0.17806518 -0.35315353 0.08219602
-0.17802353 -0.35283094 0.08231844
-0.17805065 -0.35266900 0.08219873
-0.17814660 -0.35266750 0.08183671
-0.15931746 -0.42307379 0.15965893
-0.15934374 -0.42291693 0.15954297
-0.15936351 -0.42273945 0.15944936
-0.15937677 -0.42254139 0.15937812
-0.15939653 -0.42236392 0.15928458
-0.15942280 -0.42220709 0.15916864
-0.15944256 -0.42202967 0.15907507
-0.15945581 -0.42183174 0.15900385
-0.15948859 -0.42169545 0.15886558
-0.15952137 -0.42155919 0.15872725
-0.15954765 -0.42140236 0.15861131
-0.16052627 -0.41514435 0.15424792
-0.16057878 -0.41506853 0.15404158
-0.16061162 -0.41493196 0.15390303
-0.16067730 -0.41489654 0.15365130
-0.16075618 -0.41490160 0.15335410
-0.16076930 -0.41470421 0.15328342
-0.16254040 -0.41511616 0.14664159
-0.16262744 -0.41514178 0.14631578
-0.16265397 -0.41498342 0.14619871
-0.16268049 -0.41482506 0.14608164
-0.16270029 -0.41464629 0.14598779
-0.16272681 -0.41448794 0.14587073
-0.16276007 -0.41434999 0.14573043
-0.16278660 -0.41419164 0.14561336
-0.16120788 -0.40846708 0.15096098
-0.16123409 -0.40831063 0.15084532
-0.16126688 -0.40817403 0.15070696
-0.16129967 -0.40803745 0.15056855
-0.16133246 -0.40790082 0.15043017
-0.16137185 -0.40778408 0.15026898
-0.16141124 -0.40766727 0.15010781
-0.16148362 -0.40764970 0.14983271
-0.16153624 -0.40757255 0.14962582
-0.16156247 -0.40741597 0.14951007
-0.16166137 -0.40747774 0.14914333
-0.16029529 -0.39710893 0.15319169
-0.16032114 -0.39695460 0.15307760
-0.16034700 -0.39680027 0.15296351
