ply
format ascii 1.0
element vertex 1399
property float x
property float y
property float z
end_header
-0.24325710 0.06510919 0.11129209
-0.24326044 0.06546542 0.11131272
-0.24326377 0.06582166 0.11133335
-0.24326711 0.06617789 0.11135398
-0.24327044 0.06653412 0.11137460
-0.24327378 0.06689036 0.11139523
-0.24327711 0.06724659 0.11141586
-0.24328045 0.06760283 0.11143648
-0.24328378 0.06795906 0.11145711
-0.24328712 0.06831529 0.11147774
-0.24329045 0.06867153 0.11149837
-0.24329378 0.06902776 0.11151899
-0.24329712 0.06938399 0.11153962
-0.24330045 0.06974023 0.11156025
-0.24330379 0.07009646 0.11158087
-0.24330712 0.07045270 0.11160150
-0.24331046 0.07080893 0.11162213
-0.24331379 0.07116516 0.11164275
-0.24331713 0.07152140 0.11166338
-0.24332046 0.07187763 0.11168401
-0.24332380 0.07223387 0.11170464
-0.24332713 0.07259010 0.11172526
-0.24333047 0.07294633 0.11174589
-0.24333380 0.07330257 0.11176652
-0.24333713 0.07365880 0.11178714
-0.24334047 0.07401503 0.11180777
-0.24334380 0.07437127 0.11182840
-0.24334714 0.07472750 0.11184903
-0.24335047 0.07508374 0.11186965
-0.24335381 0.07543997 0.11189028
-0.24335714 0.07579620 0.11191091
-0.24336048 0.07615244 0.11193153
-0.24336381 0.07650867 0.11195216
-0.24336715 0.07686490 0.11197279
-0.24337048 0.07722114 0.11199341
-0.24337381 0.07757737 0.11201404
-0.24337715 0.07793361 0.11203467
-0.24338048 0.07828984 0.11205530
-0.24338382 0.07864607 0.11207592
-0.24338715 0.07900231 0.11209655
-0.24339049 0.07935854 0.11211718
-0.24339382 0.07971478 0.11213780
-0.24339716 0.08007101 0.11215843
-0.24340049 0.08042724 0.11217906
-0.24340383 0.08078348 0.11219968
-0.24340716 0.08113971 0.11222031
-0.24341050 0.08149595 0.11224094
-0.24359056 0.10073257 0.11335480
-0.24359390 0.10108881 0.11337543
-0.24359723 0.10144504 0.11339605
-0.24360057 0.10180127 0.11341668
-0.24232080 0.10331826 0.11734998
-0.24229062 0.10365573 0.11746862
-0.24227718 0.10400112 0.11753816
-0.24228049 0.10435454 0.11755863
-0.24228380 0.10470797 0.11757909
-0.24228710 0.10506138 0.11759956
-0.24232391 0.10543121 0.11752188
-0.24232722 0.10578470 0.11754234
-0.24233053 0.10613819 0.11756281
-0.24233384 0.10649168 0.11758328
-0.24366059 0.10821348 0.11378797
-0.24366392 0.10856972 0.11380859
-0.24366726 0.10892595 0.11382922
-0.24367059 0.10928218 0.11384985
-0.24367393 0.10963842 0.11387048
-0.24367726 0.10999465 0.11389110
-0.24368060 0.11035089 0.11391173
-0.24368393 0.11070712 0.11393236
-0.24212516 0.11797746 0.11918804
-0.24212846 0.11833029 0.11920847
-0.24214847 0.11869262 0.11918007
-0.24215177 0.11904548 0.11920051
-0.24218848 0.11941748 0.11912329
-0.24219178 0.11977041 0.11914373
-0.24221179 0.12013298 0.11911534
-0.24221509 0.12048595 0.11913578
-0.24221840 0.12083892 0.11915622
-0.24220500 0.12118215 0.11922547
-0.24215818 0.12150575 0.11939234
-0.24211138 0.12182917 0.11955914
-0.24206462 0.12215239 0.11972582
-0.24196787 0.12244585 0.12003850
-0.24197117 0.12279826 0.12005891
-0.24243885 0.12483271 0.11884342
-0.24244216 0.12518607 0.11886388
-0.24241197 0.12551905 0.11898214
-0.24236503 0.12584169 0.11914929
-0.24230142 0.12615391 0.11936511
-0.24228799 0.12649668 0.11943439
-0.24229130 0.12684968 0.11945483
-0.24227787 0.12719234 0.11952410
-0.24228117 0.12754531 0.11954454
-0.24225106 0.12787747 0.11966253
-0.24225436 0.12823036 0.11968296
-0.24227438 0.12859374 0.11965462
-0.24242829 0.12904133 0.11923558
-0.24246510 0.12941571 0.11915828
-0.24248516 0.12977963 0.11912986
-0.24248847 0.13013298 0.11915032
-0.24249177 0.13048633 0.11917078
-0.24246158 0.13081827 0.11928898
-0.24244813 0.13116082 0.11935830
-0.24243468 0.13150329 0.11942763
-0.24240450 0.13183490 0.11954575
-0.24237434 0.13216638 0.11966381
-0.24237764 0.13251945 0.11968426
-0.24238095 0.13287252 0.11970470
-0.24236751 0.13321465 0.11977394
-0.24235408 0.13355673 0.11984319
-0.24239086 0.13393174 0.11976603
-0.24245099 0.13502429 0.11968099
-0.24237060 0.13532174 0.11994539
-0.24237391 0.13567475 0.11996583
-0.24241069 0.13605017 0.11988870
-0.24251734 0.14033358 0.11993893
-0.24252065 0.14068679 0.11995938
-0.24245696 0.14099318 0.12017491
-0.24242678 0.14132279 0.12029286
-0.24243008 0.14167578 0.12031330
-0.24243339 0.14202879 0.12033374
-0.24243669 0.14238179 0.12035418
-0.24404073 0.14882414 0.11613945
-0.24404407 0.14918037 0.11616008
-0.24404740 0.14953661 0.11618070
-0.24055288 0.14832906 0.12646241
-0.24049071 0.14862876 0.12667285
-0.24044495 0.14894058 0.12683558
-0.24046454 0.14930164 0.12680830
-0.24046781 0.14965038 0.12682849
-0.24047107 0.14999912 0.12684868
-0.24047434 0.15034786 0.12686888
-0.24044492 0.15067160 0.12698405
-0.24051357 0.15107042 0.12681423
-0.24058228 0.15146955 0.12664425
-0.24341564 0.16667334 0.11952720
-0.24338515 0.16699926 0.11964574
-0.24340537 0.16736813 0.11961727
-0.24344252 0.16775147 0.11953974
-0.24197687 -0.03640651 0.10527773
-0.24198020 -0.03605028 0.10529836
-0.24198354 -0.03569405 0.10531898
-0.24198687 -0.03533781 0.10533961
-0.24199021 -0.03498158 0.10536024
-0.24199354 -0.03462535 0.10538087
-0.24199688 -0.03426911 0.10540149
-0.24200021 -0.03391288 0.10542212
-0.24200355 -0.03355665 0.10544275
-0.24200688 -0.03320041 0.10546337
-0.24201021 -0.03284417 0.10548400
-0.24201355 -0.03248794 0.10550463
-0.24201688 -0.03213171 0.10552526
-0.24202022 -0.03177547 0.10554588
-0.24202355 -0.03141924 0.10556651
-0.24202689 -0.03106301 0.10558714
-0.24203022 -0.03070677 0.10560776
-0.24203356 -0.03035054 0.10562839
-0.24203689 -0.02999431 0.10564902
-0.24204023 -0.02963807 0.10566964
-0.24204356 -0.02928184 0.10569027
-0.24204689 -0.02892561 0.10571090
-0.24205023 -0.02856937 0.10573153
-0.24205356 -0.02821314 0.10575215
-0.24205690 -0.02785690 0.10577278
-0.24206023 -0.02750067 0.10579341
-0.24206357 -0.02714443 0.10581403
-0.24206690 -0.02678820 0.10583466
-0.24207024 -0.02643197 0.10585529
-0.24207357 -0.02607573 0.10587591
-0.24207691 -0.02571950 0.10589654
-0.24208024 -0.02536327 0.10591717
-0.24208358 -0.02500703 0.10593780
-0.24208691 -0.02465080 0.10595842
-0.24209024 -0.02429457 0.10597905
-0.24209358 -0.02393833 0.10599968
-0.24209691 -0.02358210 0.10602030
-0.24210025 -0.02322586 0.10604093
-0.24210358 -0.02286963 0.10606156
-0.24210692 -0.02251339 0.10608219
-0.24211025 -0.02215716 0.10610281
-0.24211359 -0.02180093 0.10612344
-0.24211692 -0.02144469 0.10614407
-0.24212026 -0.02108846 0.10616469
-0.24212359 -0.02073223 0.10618532
-0.24212692 -0.02037599 0.10620595
-0.24213026 -0.02001976 0.10622657
-0.24213359 -0.01966353 0.10624720
-0.24213693 -0.01930729 0.10626783
-0.24214026 -0.01895106 0.10628846
-0.24214360 -0.01859483 0.10630908
-0.24214693 -0.01823859 0.10632971
-0.24215027 -0.01788235 0.10635034
-0.24215360 -0.01752612 0.10637096
-0.24215694 -0.01716989 0.10639159
-0.24216027 -0.01681365 0.10641222
-0.24216361 -0.01645742 0.10643285
-0.24216694 -0.01610119 0.10645347
-0.24217027 -0.01574495 0.10647410
-0.24217361 -0.01538872 0.10649473
-0.24217694 -0.01503249 0.10651535
-0.24218028 -0.01467625 0.10653598
-0.24218361 -0.01432002 0.10655661
-0.24218695 -0.01396379 0.10657723
-0.24219028 -0.01360755 0.10659786
-0.24219362 -0.01325131 0.10661849
-0.24219695 -0.01289508 0.10663912
-0.24220029 -0.01253885 0.10665974
-0.24220362 -0.01218261 0.10668037
-0.24220696 -0.01182638 0.10670100
-0.24221029 -0.01147015 0.10672162
-0.24221362 -0.01111391 0.10674225
-0.24221696 -0.01075768 0.10676288
-0.24222029 -0.01040145 0.10678350
-0.24222363 -0.01004521 0.10680413
-0.24222696 -0.00968898 0.10682476
-0.24223030 -0.00933274 0.10684539
-0.24223363 -0.00897651 0.10686601
-0.24223697 -0.00862028 0.10688664
-0.24224030 -0.00826404 0.10690727
-0.24224364 -0.00790781 0.10692789
-0.24224697 -0.00755157 0.10694852
-0.24225030 -0.00719534 0.10696915
-0.24225364 -0.00683911 0.10698978
-0.24225697 -0.00648287 0.10701040
-0.24226031 -0.00612664 0.10703103
-0.24226364 -0.00577041 0.10705166
-0.24226698 -0.00541417 0.10707228
-0.24227031 -0.00505794 0.10709291
-0.24227365 -0.00470170 0.10711354
-0.24227698 -0.00434547 0.10713416
-0.24228032 -0.00398924 0.10715479
-0.24228365 -0.00363300 0.10717542
-0.24228699 -0.00327677 0.10719605
-0.24229032 -0.00292054 0.10721667
-0.24229365 -0.00256430 0.10723730
-0.24229699 -0.00220806 0.10725793
-0.24230032 -0.00185183 0.10727855
-0.24230366 -0.00149560 0.10729918
-0.24230699 -0.00113937 0.10731981
-0.24231033 -0.00078313 0.10734043
-0.24231366 -0.00042689 0.10736106
-0.24231700 -0.00007066 0.10738169
-0.24232033 0.00028557 0.10740232
-0.24232367 0.00064181 0.10742294
-0.24232700 0.00099804 0.10744357
-0.24233034 0.00135427 0.10746420
-0.24233367 0.00171050 0.10748482
-0.24233700 0.00206674 0.10750545
-0.24234034 0.00242298 0.10752608
-0.24234367 0.00277921 0.10754671
-0.24234701 0.00313544 0.10756733
-0.24235034 0.00349168 0.10758796
-0.24235368 0.00384791 0.10760859
-0.24235701 0.00420414 0.10762921
-0.24236035 0.00456038 0.10764984
-0.24236368 0.00491661 0.10767047
-0.24236702 0.00527285 0.10769109
-0.24237035 0.00562908 0.10771172
-0.24237368 0.00598531 0.10773235
-0.24237702 0.00634155 0.10775298
-0.24238035 0.00669778 0.10777360
-0.24238369 0.00705402 0.10779423
-0.24238702 0.00741025 0.10781486
-0.24239036 0.00776648 0.10783548
-0.24239369 0.00812272 0.10785611
-0.24239703 0.00847895 0.10787674
-0.24240036 0.00883518 0.10789737
-0.24240370 0.00919142 0.10791799
-0.24240703 0.00954765 0.10793862
-0.24241037 0.00990389 0.10795925
-0.24241370 0.01026012 0.10797987
-0.24241703 0.01061635 0.10800050
-0.24242037 0.01097259 0.10802113
-0.24242370 0.01132882 0.10804175
-0.24242704 0.01168506 0.10806238
-0.24243037 0.01204129 0.10808301
-0.24243371 0.01239752 0.10810364
-0.24243704 0.01275376 0.10812426
-0.24244038 0.01310999 0.10814489
-0.24244371 0.01346622 0.10816552
-0.24244705 0.01382246 0.10818614
-0.24245038 0.01417869 0.10820677
-0.24245371 0.01453493 0.10822740
-0.24245705 0.01489116 0.10824803
-0.24246038 0.01524739 0.10826865
-0.24246372 0.01560363 0.10828928
-0.24246705 0.01595986 0.10830991
-0.24247039 0.01631609 0.10833053
-0.24247372 0.01667233 0.10835116
-0.24247706 0.01702856 0.10837179
-0.24248039 0.01738480 0.10839241
-0.24248373 0.01774103 0.10841304
-0.24248706 0.01809726 0.10843367
-0.24249040 0.01845350 0.10845430
-0.24249373 0.01880973 0.10847492
-0.24249706 0.01916596 0.10849555
-0.24250040 0.01952220 0.10851618
-0.24250373 0.01987843 0.10853680
-0.24250707 0.02023467 0.10855743
-0.24251040 0.02059090 0.10857806
-0.24251374 0.02094713 0.10859868
-0.24251707 0.02130337 0.10861931
-0.24252041 0.02165960 0.10863994
-0.24252374 0.02201584 0.10866057
-0.24252708 0.02237207 0.10868119
-0.24253041 0.02272830 0.10870182
-0.24253375 0.02308454 0.10872245
-0.24253708 0.02344077 0.10874307
-0.24254041 0.02379700 0.10876370
-0.24254375 0.02415324 0.10878433
-0.24254708 0.02450947 0.10880496
-0.24255042 0.02486571 0.10882558
-0.24255375 0.02522194 0.10884621
-0.24255709 0.02557817 0.10886684
-0.24256042 0.02593441 0.10888746
-0.24256376 0.02629064 0.10890809
-0.24256709 0.02664688 0.10892872
-0.24257043 0.02700311 0.10894934
-0.24257376 0.02735934 0.10896997
-0.24257709 0.02771558 0.10899060
-0.24258043 0.02807181 0.10901123
-0.24258376 0.02842804 0.10903185
-0.24258710 0.02878428 0.10905248
-0.24259043 0.02914051 0.10907311
-0.24259377 0.02949675 0.10909373
-0.24259710 0.02985298 0.10911436
-0.24260044 0.03020921 0.10913499
-0.24260377 0.03056545 0.10915562
-0.24260711 0.03092168 0.10917624
-0.24261044 0.03127791 0.10919687
-0.24261378 0.03163415 0.10921750
-0.24261711 0.03199038 0.10923812
-0.24262044 0.03234662 0.10925875
-0.24262378 0.03270285 0.10927938
-0.24262711 0.03305908 0.10930000
-0.24263045 0.03341532 0.10932063
-0.24263378 0.03377155 0.10934126
-0.24263712 0.03412779 0.10936189
-0.24264045 0.03448402 0.10938251
-0.24264379 0.03484025 0.10940314
-0.24264712 0.03519649 0.10942377
-0.24265046 0.03555272 0.10944439
-0.24265379 0.03590896 0.10946502
-0.24265712 0.03626519 0.10948565
-0.24266046 0.03662142 0.10950627
-0.24266379 0.03697766 0.10952690
-0.24266713 0.03733389 0.10954753
-0.24267046 0.03769013 0.10956816
-0.24267380 0.03804636 0.10958878
-0.24267713 0.03840259 0.10960941
-0.24268047 0.03875883 0.10963004
-0.24268380 0.03911506 0.10965066
-0.24268714 0.03947129 0.10967129
-0.24269047 0.03982753 0.10969192
-0.24269381 0.04018376 0.10971255
-0.24269714 0.04054000 0.10973317
-0.24270047 0.04089623 0.10975380
-0.24270381 0.04125246 0.10977443
-0.24270714 0.04160870 0.10979505
-0.24271048 0.04196493 0.10981568
-0.24271381 0.04232116 0.10983631
-0.24271715 0.04267740 0.10985693
-0.24272048 0.04303363 0.10987756
-0.24272382 0.04338987 0.10989819
-0.24272715 0.04374610 0.10991882
-0.24273049 0.04410233 0.10993944
-0.24273382 0.04445857 0.10996007
-0.24273716 0.04481480 0.10998070
-0.24274049 0.04517104 0.11000132
-0.24274382 0.04552727 0.11002195
-0.24274716 0.04588350 0.11004258
-0.24275049 0.04623974 0.11006321
-0.24275383 0.04659597 0.11008383
-0.24275716 0.04695220 0.11010446
-0.24276050 0.04730844 0.11012509
-0.24276383 0.04766467 0.11014571
-0.24276717 0.04802091 0.11016634
-0.24277050 0.04837714 0.11018697
-0.24277384 0.04873337 0.11020759
-0.24277717 0.04908961 0.11022822
-0.24278050 0.04944584 0.11024885
-0.24278384 0.04980208 0.11026948
-0.24278717 0.05015831 0.11029010
-0.24279051 0.05051454 0.11031073
-0.24279384 0.05087078 0.11033136
-0.24279718 0.05122701 0.11035198
-0.24280051 0.05158324 0.11037261
-0.24280385 0.05193948 0.11039324
-0.24280718 0.05229571 0.11041386
-0.24281052 0.05265195 0.11043449
-0.24281385 0.05300818 0.11045512
-0.24281719 0.05336441 0.11047575
-0.24282052 0.05372065 0.11049637
-0.24282385 0.05407688 0.11051700
-0.24282719 0.05443312 0.11053763
-0.24283052 0.05478935 0.11055825
-0.24283386 0.05514558 0.11057888
-0.24283719 0.05550182 0.11059951
-0.24284053 0.05585805 0.11062014
-0.24284386 0.05621428 0.11064076
-0.24284720 0.05657052 0.11066139
-0.24285053 0.05692675 0.11068202
-0.24285387 0.05728299 0.11070264
-0.24285720 0.05763922 0.11072327
-0.24286053 0.05799545 0.11074390
-0.24286387 0.05835169 0.11076452
-0.24286720 0.05870792 0.11078515
-0.24287054 0.05906416 0.11080578
-0.24287387 0.05942039 0.11082641
-0.24287721 0.05977662 0.11084703
-0.24288054 0.06013286 0.11086766
-0.24288388 0.06048909 0.11088829
-0.24288721 0.06084532 0.11090891
-0.24289055 0.06120156 0.11092954
-0.24289388 0.06155779 0.11095017
-0.24289722 0.06191403 0.11097080
-0.24290055 0.06227026 0.11099142
-0.24290388 0.06262649 0.11101205
-0.24290722 0.06298273 0.11103268
-0.24291055 0.06333896 0.11105330
-0.24291389 0.06369520 0.11107393
-0.24291722 0.06405143 0.11109456
-0.24292056 0.06440766 0.11111518
-0.24292389 0.06476390 0.11113581
-0.24292723 0.06512013 0.11115644
-0.24293056 0.06547636 0.11117707
-0.24293390 0.06583260 0.11119769
-0.24293723 0.06618883 0.11121832
-0.24294057 0.06654507 0.11123895
-0.24294390 0.06690130 0.11125957
-0.24294723 0.06725753 0.11128020
-0.24295057 0.06761377 0.11130083
-0.24295390 0.06797000 0.11132145
-0.24295724 0.06832623 0.11134208
-0.24296057 0.06868247 0.11136271
-0.24296391 0.06903870 0.11138334
-0.24296724 0.06939494 0.11140396
-0.24297058 0.06975117 0.11142459
-0.24297391 0.07010741 0.11144522
-0.24297725 0.07046364 0.11146584
-0.24298058 0.07081987 0.11148647
-0.24298391 0.07117611 0.11150710
-0.24298725 0.07153234 0.11152773
-0.24299058 0.07188857 0.11154835
-0.24299392 0.07224481 0.11156898
-0.24299725 0.07260104 0.11158961
-0.24300059 0.07295728 0.11161023
-0.24300392 0.07331351 0.11163086
-0.24300726 0.07366974 0.11165149
-0.24301059 0.07402598 0.11167211
-0.24301393 0.07438221 0.11169274
-0.24301726 0.07473845 0.11171337
-0.24302060 0.07509468 0.11173400
-0.24302393 0.07545091 0.11175462
-0.24302726 0.07580715 0.11177525
-0.24303060 0.07616338 0.11179588
-0.24303393 0.07651961 0.11181650
-0.24303727 0.07687585 0.11183713
-0.24304060 0.07723208 0.11185776
-0.24304394 0.07758832 0.11187839
-0.24304727 0.07794455 0.11189901
-0.24305061 0.07830078 0.11191964
-0.24305394 0.07865702 0.11194027
-0.24305728 0.07901325 0.11196089
-0.24306061 0.07936948 0.11198152
-0.24306394 0.07972572 0.11200215
-0.24306728 0.08008195 0.11202277
-0.24307061 0.08043819 0.11204340
-0.24307395 0.08079442 0.11206403
-0.24307728 0.08115065 0.11208466
-0.24308062 0.08150689 0.11210528
-0.24308395 0.08186312 0.11212591
-0.24325068 0.09967481 0.11315726
-0.24325402 0.10003105 0.11317789
-0.24325735 0.10038728 0.11319852
-0.24326069 0.10074352 0.11321914
-0.24326402 0.10109975 0.11323977
-0.24326735 0.10145598 0.11326040
-0.24327069 0.10181222 0.11328102
-0.24205705 0.10300746 0.11699832
-0.24199344 0.10332912 0.11721536
-0.24194660 0.10365856 0.11738312
-0.24193322 0.10400392 0.11745262
-0.24188642 0.10433303 0.11762024
-0.24187302 0.10467818 0.11768973
-0.24195983 0.10507224 0.11746497
-0.24196314 0.10542566 0.11748544
-0.24196645 0.10577908 0.11750590
-0.24183618 0.10606639 0.11791857
-0.24178945 0.10639466 0.11808592
-0.24195968 0.10683101 0.11761632
-0.24333405 0.10858066 0.11367294
-0.24333738 0.10893689 0.11369357
-0.24334072 0.10929313 0.11371419
-0.24334405 0.10964936 0.11373482
-0.24334739 0.11000559 0.11375545
-0.24335072 0.11036183 0.11377607
-0.24335405 0.11071806 0.11379670
-0.24193502 0.12017277 0.11883427
-0.24190494 0.12050647 0.11895248
-0.24189155 0.12084976 0.11902181
-0.24187818 0.12119299 0.11909107
-0.24179811 0.12149705 0.11935563
-0.24168485 0.12178122 0.11971736
-0.24150530 0.12202577 0.12027312
-0.24144220 0.12233856 0.12048788
-0.24144549 0.12269056 0.12050827
-0.24215171 0.12557065 0.11865189
-0.24208814 0.12588319 0.11886806
-0.24204129 0.12620572 0.11903525
-0.24196111 0.12650752 0.11929996
-0.24196442 0.12686052 0.11932040
-0.24190759 0.12787790 0.11957693
-0.24191090 0.12823077 0.11959736
-0.24212121 0.12941600 0.11907262
-0.24219141 0.12981169 0.11889746
-0.24219472 0.13016511 0.11891793
-0.24216457 0.13049718 0.11903622
-0.24213444 0.13082912 0.11915445
-0.24212102 0.13117167 0.11922379
-0.24210761 0.13151414 0.11929312
-0.24207749 0.13184575 0.11941127
-0.24206409 0.13218805 0.11948054
-0.24206740 0.13254116 0.11950099
-0.24207070 0.13289427 0.11952143
-0.24205731 0.13323644 0.11959069
-0.24206061 0.13358951 0.11961114
-0.24211402 0.13397560 0.11948515
-0.24220095 0.13438404 0.11926128
-0.24220426 0.13473740 0.11928174
-0.24217412 0.13506849 0.11939992
-0.24209384 0.13536601 0.11966455
-0.24208044 0.13570794 0.11973380
-0.24208375 0.13606102 0.11975425
-0.24220699 0.14035607 0.11975559
-0.24219357 0.14069764 0.11982487
-0.24213002 0.14100403 0.12004046
-0.24211661 0.14134536 0.12010967
-0.24210320 0.14168663 0.12017888
-0.24210650 0.14203963 0.12019932
-0.24210981 0.14239264 0.12021976
-0.24368751 0.14634145 0.11585941
-0.24369085 0.14669768 0.11588003
-0.24369418 0.14705392 0.11590066
-0.24370752 0.14847885 0.11598317
-0.24371086 0.14883508 0.11600379
-0.24371419 0.14919132 0.11602442
-0.24371752 0.14954755 0.11604505
-0.24372086 0.14990379 0.11606568
-0.24023302 0.14868872 0.12634974
-0.24020364 0.14901297 0.12646508
-0.24020690 0.14936185 0.12648528
-0.24024282 0.14973555 0.12641035
-0.24024609 0.15008450 0.12643056
-0.24026569 0.15044592 0.12640317
-0.24164868 0.15848710 0.12297385
-0.24160216 0.15879859 0.12313909
-0.24150597 0.15906964 0.12344886
-0.24149270 0.15940760 0.12351737
-0.24149599 0.15975898 0.12353772
-0.24144959 0.16006980 0.12370258
-0.24305356 0.16665565 0.11949021
-0.24304001 0.16699583 0.11955975
-0.24306020 0.16736466 0.11953127
-0.24308039 0.16773357 0.11950278
-0.24164699 -0.03639557 0.10514208
-0.24165033 -0.03603934 0.10516270
-0.24165366 -0.03568310 0.10518333
-0.24165700 -0.03532687 0.10520396
-0.24166033 -0.03497064 0.10522458
-0.24166367 -0.03461440 0.10524521
-0.24166700 -0.03425817 0.10526584
-0.24167034 -0.03390194 0.10528646
-0.24167367 -0.03354570 0.10530709
-0.24167701 -0.03318947 0.10532772
-0.24168034 -0.03283323 0.10534835
-0.24168368 -0.03247700 0.10536897
-0.24168701 -0.03212076 0.10538960
-0.24169034 -0.03176453 0.10541023
-0.24169368 -0.03140830 0.10543085
-0.24169701 -0.03105206 0.10545148
-0.24170035 -0.03069583 0.10547211
-0.24170368 -0.03033960 0.10549274
-0.24170702 -0.02998336 0.10551336
-0.24171035 -0.02962713 0.10553399
-0.24171369 -0.02927090 0.10555462
-0.24171702 -0.02891466 0.10557524
-0.24172036 -0.02855843 0.10559587
-0.24172369 -0.02820220 0.10561650
-0.24172702 -0.02784596 0.10563712
-0.24173036 -0.02748972 0.10565775
-0.24173369 -0.02713349 0.10567838
-0.24173703 -0.02677726 0.10569901
-0.24174036 -0.02642102 0.10571963
-0.24174370 -0.02606479 0.10574026
-0.24174703 -0.02570856 0.10576089
-0.24175037 -0.02535232 0.10578151
-0.24175370 -0.02499609 0.10580214
-0.24175704 -0.02463986 0.10582277
-0.24176037 -0.02428362 0.10584340
-0.24176371 -0.02392739 0.10586402
-0.24176704 -0.02357116 0.10588465
-0.24177037 -0.02321492 0.10590528
-0.24177371 -0.02285868 0.10592590
-0.24177704 -0.02250245 0.10594653
-0.24178038 -0.02214622 0.10596716
-0.24178371 -0.02178998 0.10598778
-0.24178705 -0.02143375 0.10600841
-0.24179038 -0.02107752 0.10602904
-0.24179372 -0.02072128 0.10604967
-0.24179705 -0.02036505 0.10607029
-0.24180039 -0.02000882 0.10609092
-0.24180372 -0.01965258 0.10611155
-0.24180705 -0.01929635 0.10613217
-0.24181039 -0.01894012 0.10615280
-0.24181372 -0.01858388 0.10617343
-0.24181706 -0.01822764 0.10619406
-0.24182039 -0.01787141 0.10621468
-0.24182373 -0.01751518 0.10623531
-0.24182706 -0.01715894 0.10625594
-0.24183040 -0.01680271 0.10627656
-0.24183373 -0.01644648 0.10629719
-0.24183707 -0.01609024 0.10631782
-0.24184040 -0.01573401 0.10633844
-0.24184374 -0.01537778 0.10635907
-0.24184707 -0.01502154 0.10637970
-0.24185040 -0.01466531 0.10640033
-0.24185374 -0.01430908 0.10642095
-0.24185707 -0.01395284 0.10644158
-0.24186041 -0.01359660 0.10646221
-0.24186374 -0.01324037 0.10648283
-0.24186708 -0.01288414 0.10650346
-0.24187041 -0.01252790 0.10652409
-0.24187375 -0.01217167 0.10654471
-0.24187708 -0.01181544 0.10656534
-0.24188042 -0.01145920 0.10658597
-0.24188375 -0.01110297 0.10660660
-0.24188709 -0.01074674 0.10662722
-0.24189042 -0.01039050 0.10664785
-0.24189375 -0.01003427 0.10666848
-0.24189709 -0.00967803 0.10668910
-0.24190042 -0.00932180 0.10670973
-0.24190376 -0.00896557 0.10673036
-0.24190709 -0.00860933 0.10675099
-0.24191043 -0.00825310 0.10677161
-0.24191376 -0.00789687 0.10679224
-0.24191710 -0.00754063 0.10681287
-0.24192043 -0.00718440 0.10683349
-0.24192377 -0.00682816 0.10685412
-0.24192710 -0.00647193 0.10687475
-0.24193043 -0.00611570 0.10689537
-0.24193377 -0.00575946 0.10691600
-0.24193710 -0.00540323 0.10693663
-0.24194044 -0.00504699 0.10695726
-0.24194377 -0.00469076 0.10697788
-0.24194711 -0.00433453 0.10699851
-0.24195044 -0.00397829 0.10701914
-0.24195378 -0.00362206 0.10703976
-0.24195711 -0.00326583 0.10706039
-0.24196045 -0.00290959 0.10708102
-0.24196378 -0.00255336 0.10710165
-0.24196712 -0.00219712 0.10712227
-0.24197045 -0.00184089 0.10714290
-0.24197378 -0.00148466 0.10716353
-0.24197712 -0.00112842 0.10718415
-0.24198045 -0.00077219 0.10720478
-0.24198379 -0.00041595 0.10722541
-0.24198712 -0.00005972 0.10724603
-0.24199046 0.00029651 0.10726666
-0.24199379 0.00065275 0.10728729
-0.24199713 0.00100898 0.10730792
-0.24200046 0.00136521 0.10732854
-0.24200380 0.00172145 0.10734917
-0.24200713 0.00207768 0.10736980
-0.24201046 0.00243392 0.10739042
-0.24201380 0.00279015 0.10741105
-0.24201713 0.00314638 0.10743168
-0.24202047 0.00350262 0.10745230
-0.24202380 0.00385885 0.10747293
-0.24202714 0.00421508 0.10749356
-0.24203047 0.00457132 0.10751419
-0.24203381 0.00492755 0.10753481
-0.24203714 0.00528379 0.10755544
-0.24204048 0.00564002 0.10757607
-0.24204381 0.00599625 0.10759669
-0.24204715 0.00635249 0.10761732
-0.24205048 0.00670872 0.10763795
-0.24205381 0.00706496 0.10765858
-0.24205715 0.00742119 0.10767920
-0.24206048 0.00777742 0.10769983
-0.24206382 0.00813366 0.10772046
-0.24206715 0.00848989 0.10774108
-0.24207049 0.00884612 0.10776171
-0.24207382 0.00920236 0.10778234
-0.24207716 0.00955859 0.10780296
-0.24208049 0.00991483 0.10782359
-0.24208383 0.01027106 0.10784422
-0.24208716 0.01062729 0.10786485
-0.24209050 0.01098353 0.10788547
-0.24209383 0.01133976 0.10790610
-0.24209716 0.01169600 0.10792673
-0.24210050 0.01205223 0.10794735
-0.24210383 0.01240847 0.10796798
-0.24210717 0.01276470 0.10798861
-0.24211050 0.01312093 0.10800924
-0.24211384 0.01347716 0.10802986
-0.24211717 0.01383340 0.10805049
-0.24212051 0.01418964 0.10807112
-0.24212384 0.01454587 0.10809174
-0.24212718 0.01490210 0.10811237
-0.24213051 0.01525834 0.10813300
-0.24213384 0.01561457 0.10815362
-0.24213718 0.01597080 0.10817425
-0.24214051 0.01632703 0.10819488
-0.24214385 0.01668327 0.10821551
-0.24214718 0.01703951 0.10823613
-0.24215052 0.01739574 0.10825676
-0.24215385 0.01775197 0.10827739
-0.24215719 0.01810821 0.10829801
-0.24216052 0.01846444 0.10831864
-0.24216386 0.01882067 0.10833927
-0.24216719 0.01917691 0.10835989
-0.24217053 0.01953314 0.10838052
-0.24217386 0.01988938 0.10840115
-0.24217719 0.02024561 0.10842178
-0.24218053 0.02060184 0.10844240
-0.24218386 0.02095808 0.10846303
-0.24218720 0.02131431 0.10848366
-0.24219053 0.02167054 0.10850428
-0.24219387 0.02202678 0.10852491
-0.24219720 0.02238301 0.10854554
-0.24220054 0.02273925 0.10856617
-0.24220387 0.02309548 0.10858679
-0.24220721 0.02345171 0.10860742
-0.24221054 0.02380795 0.10862805
-0.24221387 0.02416418 0.10864867
-0.24221721 0.02452042 0.10866930
-0.24222054 0.02487665 0.10868993
-0.24222388 0.02523288 0.10871055
-0.24222721 0.02558912 0.10873118
-0.24223055 0.02594535 0.10875181
-0.24223388 0.02630158 0.10877244
-0.24223722 0.02665782 0.10879306
-0.24224055 0.02701405 0.10881369
-0.24224389 0.02737029 0.10883432
-0.24224722 0.02772652 0.10885494
-0.24225056 0.02808275 0.10887557
-0.24225389 0.02843899 0.10889620
-0.24225722 0.02879522 0.10891683
-0.24226056 0.02915146 0.10893745
-0.24226389 0.02950769 0.10895808
-0.24226723 0.02986392 0.10897871
-0.24227056 0.03022016 0.10899933
-0.24227390 0.03057639 0.10901996
-0.24227723 0.03093262 0.10904059
-0.24228057 0.03128886 0.10906121
-0.24228390 0.03164509 0.10908184
-0.24228724 0.03200133 0.10910247
-0.24229057 0.03235756 0.10912310
-0.24229391 0.03271379 0.10914372
-0.24229724 0.03307003 0.10916435
-0.24230057 0.03342626 0.10918498
-0.24230391 0.03378250 0.10920560
-0.24230724 0.03413873 0.10922623
-0.24231058 0.03449496 0.10924686
-0.24231391 0.03485120 0.10926748
-0.24231725 0.03520743 0.10928811
-0.24232058 0.03556366 0.10930874
-0.24232392 0.03591990 0.10932937
-0.24232725 0.03627613 0.10934999
-0.24233059 0.03663237 0.10937062
-0.24233392 0.03698860 0.10939125
-0.24233725 0.03734483 0.10941187
-0.24234059 0.03770107 0.10943250
-0.24234392 0.03805730 0.10945313
-0.24234726 0.03841354 0.10947376
-0.24235059 0.03876977 0.10949438
-0.24235393 0.03912600 0.10951501
-0.24235726 0.03948224 0.10953564
-0.24236060 0.03983847 0.10955626
-0.24236393 0.04019470 0.10957689
-0.24236727 0.04055094 0.10959752
-0.24237060 0.04090717 0.10961814
-0.24237394 0.04126341 0.10963877
-0.24237727 0.04161964 0.10965940
-0.24238060 0.04197587 0.10968003
-0.24238394 0.04233211 0.10970065
-0.24238727 0.04268834 0.10972128
-0.24239061 0.04304458 0.10974191
-0.24239394 0.04340081 0.10976253
-0.24239728 0.04375704 0.10978316
-0.24240061 0.04411328 0.10980379
-0.24240395 0.04446951 0.10982442
-0.24240728 0.04482574 0.10984504
-0.24241062 0.04518198 0.10986567
-0.24241395 0.04553821 0.10988630
-0.24241728 0.04589445 0.10990692
-0.24242062 0.04625068 0.10992755
-0.24242395 0.04660691 0.10994818
-0.24242729 0.04696315 0.10996880
-0.24243062 0.04731938 0.10998943
-0.24243396 0.04767562 0.11001006
-0.24243729 0.04803185 0.11003069
-0.24244063 0.04838808 0.11005131
-0.24244396 0.04874432 0.11007194
-0.24244730 0.04910055 0.11009257
-0.24245063 0.04945678 0.11011319
-0.24245397 0.04981302 0.11013382
-0.24245730 0.05016925 0.11015445
-0.24246063 0.05052549 0.11017507
-0.24246397 0.05088172 0.11019570
-0.24246730 0.05123795 0.11021633
-0.24247064 0.05159419 0.11023696
-0.24247397 0.05195042 0.11025758
-0.24247731 0.05230665 0.11027821
-0.24248064 0.05266289 0.11029884
-0.24248398 0.05301912 0.11031946
-0.24248731 0.05337536 0.11034009
-0.24249065 0.05373159 0.11036072
-0.24249398 0.05408782 0.11038135
-0.24249732 0.05444406 0.11040197
-0.24250065 0.05480029 0.11042260
-0.24250398 0.05515653 0.11044323
-0.24250732 0.05551276 0.11046385
-0.24251065 0.05586899 0.11048448
-0.24251399 0.05622523 0.11050511
-0.24251732 0.05658146 0.11052573
-0.24252066 0.05693769 0.11054636
-0.24252399 0.05729393 0.11056699
-0.24252733 0.05765016 0.11058762
-0.24253066 0.05800640 0.11060824
-0.24253400 0.05836263 0.11062887
-0.24253733 0.05871886 0.11064950
-0.24254066 0.05907510 0.11067012
-0.24254400 0.05943133 0.11069075
-0.24254733 0.05978757 0.11071138
-0.24255067 0.06014380 0.11073201
-0.24255400 0.06050003 0.11075263
-0.24255734 0.06085627 0.11077326
-0.24256067 0.06121250 0.11079389
-0.24256401 0.06156873 0.11081451
-0.24256734 0.06192497 0.11083514
-0.24257068 0.06228120 0.11085577
-0.24257401 0.06263744 0.11087639
-0.24257735 0.06299367 0.11089702
-0.24258068 0.06334990 0.11091765
-0.24258401 0.06370614 0.11093828
-0.24258735 0.06406237 0.11095890
-0.24259068 0.06441861 0.11097953
-0.24259402 0.06477484 0.11100016
-0.24259735 0.06513107 0.11102078
-0.24260069 0.06548731 0.11104141
-0.24260402 0.06584354 0.11106204
-0.24260736 0.06619978 0.11108266
-0.24261069 0.06655601 0.11110329
-0.24261403 0.06691224 0.11112392
-0.24261736 0.06726848 0.11114455
-0.24262069 0.06762471 0.11116517
-0.24262403 0.06798094 0.11118580
-0.24262736 0.06833718 0.11120643
-0.24263070 0.06869341 0.11122705
-0.24263403 0.06904965 0.11124768
-0.24263737 0.06940588 0.11126831
-0.24264070 0.06976211 0.11128894
-0.24264404 0.07011835 0.11130956
-0.24264737 0.07047458 0.11133019
-0.24265071 0.07083081 0.11135082
-0.24265404 0.07118705 0.11137144
-0.24265738 0.07154328 0.11139207
-0.24266071 0.07189952 0.11141270
-0.24266404 0.07225575 0.11143332
-0.24266738 0.07261198 0.11145395
-0.24267071 0.07296822 0.11147458
-0.24267405 0.07332445 0.11149521
-0.24267738 0.07368069 0.11151583
-0.24268072 0.07403692 0.11153646
-0.24268405 0.07439315 0.11155709
-0.24268739 0.07474939 0.11157771
-0.24269072 0.07510562 0.11159834
-0.24269406 0.07546185 0.11161897
-0.24269739 0.07581809 0.11163960
-0.24270073 0.07617432 0.11166022
-0.24270406 0.07653056 0.11168085
-0.24270739 0.07688679 0.11170148
-0.24271073 0.07724302 0.11172210
-0.24271406 0.07759926 0.11174273
-0.24271740 0.07795549 0.11176336
-0.24272073 0.07831173 0.11178398
-0.24272407 0.07866796 0.11180461
-0.24272740 0.07902419 0.11182524
-0.24273074 0.07938043 0.11184587
-0.24273407 0.07973666 0.11186649
-0.24273741 0.08009289 0.11188712
-0.24274074 0.08044913 0.11190775
-0.24274407 0.08080536 0.11192837
-0.24274741 0.08116159 0.11194900
-0.24275074 0.08151783 0.11196963
-0.24275408 0.08187406 0.11199026
-0.24275741 0.08223030 0.11201088
-0.24291414 0.09897329 0.11298035
-0.24291747 0.09932952 0.11300098
-0.24292081 0.09968576 0.11302161
-0.24292414 0.10004199 0.11304223
-0.24292748 0.10039822 0.11306286
-0.24293081 0.10075446 0.11308349
-0.24293415 0.10111069 0.11310412
-0.24293748 0.10146693 0.11312474
-0.24294082 0.10182316 0.11314537
-0.24167944 0.10299442 0.11701115
-0.24164939 0.10333198 0.11712985
-0.24161933 0.10366941 0.11724853
-0.24157263 0.10399865 0.11741621
-0.24155928 0.10434388 0.11748571
-0.24154592 0.10468903 0.11755521
-0.24155253 0.10539553 0.11759612
-0.24135612 0.10565013 0.11820428
-0.24135942 0.10600296 0.11822471
-0.24136272 0.10635579 0.11824514
-0.24143254 0.10674189 0.11806988
-0.24300417 0.10859160 0.11353728
-0.24300751 0.10894784 0.11355791
-0.24301084 0.10930407 0.11357854
-0.24301418 0.10966030 0.11359916
-0.24301751 0.11001654 0.11361979
-0.24302085 0.11037277 0.11364042
-0.24302418 0.11072901 0.11366105
-0.24135511 0.12143953 0.11956271
-0.24114279 0.12166491 0.12021586
-0.24104672 0.12195820 0.12052779
-0.24101694 0.12229042 0.12064521
-0.24102024 0.12264220 0.12066558
-0.24166756 0.12653891 0.11906781
-0.24186745 0.13017597 0.11878334
-0.24187076 0.13052939 0.11880381
-0.24182398 0.13085068 0.11897102
-0.24181060 0.13119325 0.11904037
-0.24178053 0.13152499 0.11915862
-0.24178384 0.13187820 0.11917907
-0.24175378 0.13220973 0.11929724
-0.24177376 0.13257375 0.11926886
-0.24177706 0.13292692 0.11928931
-0.24178037 0.13328010 0.11930976
-0.24178368 0.13363327 0.11933021
-0.24178698 0.13398645 0.11935066
-0.24185706 0.13438384 0.11917560
-0.24186036 0.13473716 0.11919606
-0.24184698 0.13507935 0.11926539
-0.24176686 0.13537686 0.11953009
-0.24175349 0.13571879 0.11959935
-0.24175680 0.13607186 0.11961979
-0.24192998 0.14040187 0.11947455
-0.24189989 0.14073185 0.11959269
-0.24186980 0.14106170 0.11971082
-0.24180637 0.14136795 0.11992645
-0.24179300 0.14170924 0.11999568
-0.24192982 0.14215680 0.11962568
-0.24335430 0.14599616 0.11570312
-0.24335764 0.14635239 0.11572375
-0.24314048 0.14654796 0.11638878
-0.24309299 0.14686661 0.11655788
-0.24309632 0.14722228 0.11657848
-0.24337098 0.14777732 0.11580626
-0.24337431 0.14813356 0.11582689
-0.24337765 0.14848979 0.11584751
-0.24338098 0.14884602 0.11586814
-0.24338432 0.14920226 0.11588877
-0.24338765 0.14955849 0.11590939
-0.24339099 0.14991473 0.11593002
-0.23996535 0.14943448 0.12611444
-0.23996862 0.14978353 0.12613465
-0.24148553 0.15827972 0.12233597
-0.24133954 0.15851127 0.12279163
-0.24134283 0.15886303 0.12281199
-0.24134613 0.15921478 0.12283236
-0.24133286 0.15955306 0.12290101
-0.24133615 0.15990477 0.12292138
-0.24130629 0.16022940 0.12303836
-0.24139244 0.16064897 0.12281722
-0.24269161 0.16663796 0.11945328
-0.24269493 0.16699240 0.11947380
-0.24271509 0.16736119 0.11944530
-0.24275208 0.16774446 0.11936777
-0.24131712 -0.03638463 0.10500642
-0.24100221 -0.03591828 0.10598857
-0.24100554 -0.03556271 0.10600916
-0.24100887 -0.03520715 0.10602975
-0.24101220 -0.03485159 0.10605034
-0.24101553 -0.03449603 0.10607093
-0.24101886 -0.03414047 0.10609152
-0.24102218 -0.03378490 0.10611210
-0.24102551 -0.03342934 0.10613269
-0.24102884 -0.03307378 0.10615328
-0.24103217 -0.03271822 0.10617387
-0.24103550 -0.03236266 0.10619446
-0.24103883 -0.03200710 0.10621504
-0.24104215 -0.03165153 0.10623563
-0.24104548 -0.03129597 0.10625622
-0.24104881 -0.03094041 0.10627681
-0.24105214 -0.03058485 0.10629740
-0.24105547 -0.03022928 0.10631798
-0.24105880 -0.02987373 0.10633857
-0.24106212 -0.02951816 0.10635916
-0.24106545 -0.02916260 0.10637975
-0.24106878 -0.02880704 0.10640034
-0.24107211 -0.02845148 0.10642093
-0.24107544 -0.02809592 0.10644151
-0.24107877 -0.02774035 0.10646210
-0.24108209 -0.02738480 0.10648269
-0.24108542 -0.02702923 0.10650328
-0.24108875 -0.02667367 0.10652387
-0.24109208 -0.02631811 0.10654445
-0.24109541 -0.02596255 0.10656504
-0.24109874 -0.02560698 0.10658563
-0.24110206 -0.02525142 0.10660622
-0.24110539 -0.02489586 0.10662681
-0.24110872 -0.02454030 0.10664739
-0.24111205 -0.02418474 0.10666798
-0.24111538 -0.02382918 0.10668857
-0.24111871 -0.02347362 0.10670916
-0.24112203 -0.02311805 0.10672975
-0.24112536 -0.02276249 0.10675034
-0.24112869 -0.02240693 0.10677092
-0.24113202 -0.02205137 0.10679151
-0.24113535 -0.02169580 0.10681210
-0.24113867 -0.02134025 0.10683269
-0.24114200 -0.02098468 0.10685328
-0.24114533 -0.02062912 0.10687386
-0.24114866 -0.02027356 0.10689445
-0.24115199 -0.01991800 0.10691504
-0.24115532 -0.01956243 0.10693563
-0.24115864 -0.01920687 0.10695622
-0.24116197 -0.01885131 0.10697680
-0.24116530 -0.01849575 0.10699739
-0.24116863 -0.01814019 0.10701798
-0.24117196 -0.01778463 0.10703857
-0.24117529 -0.01742907 0.10705916
-0.24117861 -0.01707350 0.10707975
-0.24118194 -0.01671795 0.10710033
-0.24118527 -0.01636238 0.10712092
-0.24118860 -0.01600682 0.10714151
-0.24119193 -0.01565125 0.10716210
-0.24119526 -0.01529570 0.10718269
-0.24119858 -0.01494013 0.10720327
-0.24120191 -0.01458457 0.10722386
-0.24120524 -0.01422901 0.10724445
-0.24120857 -0.01387345 0.10726504
-0.24121190 -0.01351789 0.10728563
-0.24121523 -0.01316232 0.10730622
-0.24121855 -0.01280677 0.10732680
-0.24122188 -0.01245120 0.10734739
-0.24122521 -0.01209564 0.10736798
-0.24122854 -0.01174008 0.10738857
-0.24123187 -0.01138452 0.10740916
-0.24123520 -0.01102896 0.10742974
-0.24123852 -0.01067339 0.10745033
-0.24124185 -0.01031783 0.10747092
-0.24124518 -0.00996227 0.10749151
-0.24124851 -0.00960671 0.10751210
-0.24125184 -0.00925115 0.10753268
-0.24125517 -0.00889559 0.10755327
-0.24125849 -0.00854002 0.10757386
-0.24126182 -0.00818446 0.10759445
-0.24126515 -0.00782890 0.10761504
-0.24126848 -0.00747334 0.10763562
-0.24127181 -0.00711778 0.10765621
-0.24127514 -0.00676222 0.10767680
-0.24127846 -0.00640665 0.10769739
-0.24128179 -0.00605109 0.10771798
-0.24128512 -0.00569553 0.10773857
-0.24128845 -0.00533997 0.10775915
-0.24129178 -0.00498441 0.10777974
-0.24129510 -0.00462884 0.10780033
-0.24129843 -0.00427328 0.10782092
-0.24130176 -0.00391772 0.10784151
-0.24130509 -0.00356216 0.10786209
-0.24130842 -0.00320660 0.10788268
-0.24131175 -0.00285104 0.10790327
-0.24131507 -0.00249548 0.10792386
-0.24131840 -0.00213991 0.10794445
-0.24132173 -0.00178435 0.10796503
-0.24132506 -0.00142879 0.10798562
-0.24132839 -0.00107323 0.10800621
-0.24133172 -0.00071767 0.10802680
-0.24133504 -0.00036210 0.10804739
-0.24133837 -0.00000654 0.10806798
-0.24134170 0.00034902 0.10808856
-0.24134503 0.00070458 0.10810915
-0.24134836 0.00106014 0.10812974
-0.24135169 0.00141570 0.10815033
-0.24135501 0.00177126 0.10817092
-0.24135834 0.00212683 0.10819150
-0.24136167 0.00248239 0.10821209
-0.24136500 0.00283795 0.10823268
-0.24136833 0.00319351 0.10825327
-0.24137166 0.00354907 0.10827386
-0.24137498 0.00390464 0.10829445
-0.24137831 0.00426020 0.10831503
-0.24138164 0.00461576 0.10833562
-0.24138497 0.00497132 0.10835621
-0.24138830 0.00532688 0.10837680
-0.24139163 0.00568245 0.10839739
-0.24139495 0.00603801 0.10841797
-0.24139828 0.00639357 0.10843856
-0.24140161 0.00674913 0.10845915
-0.24140494 0.00710469 0.10847974
-0.24140827 0.00746025 0.10850033
-0.24141160 0.00781581 0.10852091
-0.24141492 0.00817138 0.10854150
-0.24141825 0.00852694 0.10856209
-0.24142158 0.00888250 0.10858268
-0.24142491 0.00923806 0.10860327
-0.24142824 0.00959362 0.10862385
-0.24143157 0.00994919 0.10864444
-0.24143489 0.01030475 0.10866503
-0.24143822 0.01066031 0.10868562
-0.24144155 0.01101587 0.10870621
-0.24144488 0.01137143 0.10872680
-0.24144821 0.01172699 0.10874738
-0.24145153 0.01208255 0.10876797
-0.24145486 0.01243811 0.10878856
-0.24145819 0.01279368 0.10880915
-0.24146152 0.01314924 0.10882974
-0.24146485 0.01350480 0.10885032
-0.24146818 0.01386036 0.10887091
-0.24147150 0.01421592 0.10889150
-0.24147483 0.01457149 0.10891209
-0.24147816 0.01492705 0.10893268
-0.24148149 0.01528261 0.10895327
-0.24148482 0.01563817 0.10897385
-0.24148815 0.01599373 0.10899444
-0.24149147 0.01634930 0.10901503
-0.24149480 0.01670486 0.10903562
-0.24149813 0.01706042 0.10905621
-0.24150146 0.01741598 0.10907679
-0.24150479 0.01777154 0.10909738
-0.24150812 0.01812710 0.10911797
-0.24151144 0.01848266 0.10913856
-0.24151477 0.01883823 0.10915915
-0.24151810 0.01919379 0.10917973
-0.24152143 0.01954935 0.10920032
-0.24152476 0.01990491 0.10922091
-0.24152809 0.02026047 0.10924150
-0.24153141 0.02061604 0.10926209
-0.24153474 0.02097160 0.10928267
-0.24153807 0.02132716 0.10930326
-0.24154140 0.02168272 0.10932385
-0.24154473 0.02203828 0.10934444
-0.24154806 0.02239384 0.10936503
-0.24155138 0.02274941 0.10938562
-0.24155471 0.02310497 0.10940620
-0.24155804 0.02346053 0.10942679
-0.24156137 0.02381609 0.10944738
-0.24156470 0.02417165 0.10946797
-0.24156803 0.02452721 0.10948856
-0.24157135 0.02488277 0.10950914
-0.24157468 0.02523834 0.10952973
-0.24157801 0.02559390 0.10955032
-0.24158134 0.02594946 0.10957091
-0.24158467 0.02630502 0.10959150
-0.24158800 0.02666058 0.10961209
-0.24159132 0.02701614 0.10963267
-0.24159465 0.02737171 0.10965326
-0.24159798 0.02772727 0.10967385
-0.24160131 0.02808283 0.10969444
-0.24160464 0.02843839 0.10971503
-0.24160796 0.02879395 0.10973561
-0.24161129 0.02914952 0.10975620
-0.24161462 0.02950508 0.10977679
-0.24161795 0.02986064 0.10979738
-0.24162128 0.03021620 0.10981797
-0.24162461 0.03057176 0.10983855
-0.24162793 0.03092732 0.10985914
-0.24163126 0.03128289 0.10987973
-0.24163459 0.03163845 0.10990032
-0.24163792 0.03199401 0.10992091
-0.24164125 0.03234957 0.10994150
-0.24164458 0.03270513 0.10996208
-0.24164790 0.03306069 0.10998267
-0.24165123 0.03341626 0.11000326
-0.24165456 0.03377182 0.11002385
-0.24165789 0.03412738 0.11004444
-0.24166122 0.03448294 0.11006502
-0.24166455 0.03483850 0.11008561
-0.24166787 0.03519406 0.11010620
-0.24167120 0.03554963 0.11012679
-0.24167453 0.03590519 0.11014738
-0.24167786 0.03626075 0.11016796
-0.24168119 0.03661631 0.11018855
-0.24168452 0.03697187 0.11020914
-0.24168784 0.03732743 0.11022973
-0.24169117 0.03768300 0.11025032
-0.24169450 0.03803856 0.11027091
-0.24169783 0.03839412 0.11029149
-0.24170116 0.03874968 0.11031208
-0.24170449 0.03910524 0.11033267
-0.24170781 0.03946080 0.11035326
-0.24171114 0.03981637 0.11037385
-0.24171447 0.04017193 0.11039443
-0.24171780 0.04052749 0.11041502
-0.24172113 0.04088305 0.11043561
-0.24172446 0.04123861 0.11045620
-0.24172778 0.04159418 0.11047679
-0.24173111 0.04194974 0.11049737
-0.24173444 0.04230530 0.11051796
-0.24173777 0.04266086 0.11053855
-0.24174110 0.04301642 0.11055914
-0.24174443 0.04337198 0.11057973
-0.24174775 0.04372754 0.11060032
-0.24175108 0.04408311 0.11062090
-0.24175441 0.04443867 0.11064149
-0.24175774 0.04479423 0.11066208
-0.24176107 0.04514979 0.11068267
-0.24176439 0.04550535 0.11070326
-0.24176772 0.04586091 0.11072384
-0.24177105 0.04621648 0.11074443
-0.24177438 0.04657204 0.11076502
-0.24177771 0.04692760 0.11078561
-0.24178104 0.04728316 0.11080620
-0.24178436 0.04763872 0.11082678
-0.24178769 0.04799429 0.11084737
-0.24179102 0.04834985 0.11086796
-0.24179435 0.04870541 0.11088855
-0.24179768 0.04906097 0.11090914
-0.24180101 0.04941653 0.11092973
-0.24180433 0.04977209 0.11095031
-0.24180766 0.05012766 0.11097090
-0.24181099 0.05048322 0.11099149
-0.24181432 0.05083878 0.11101208
-0.24181765 0.05119434 0.11103267
-0.24182098 0.05154990 0.11105325
-0.24182430 0.05190546 0.11107384
-0.24182763 0.05226103 0.11109443
-0.24183096 0.05261659 0.11111502
-0.24183429 0.05297215 0.11113561
-0.24183762 0.05332771 0.11115619
-0.24184095 0.05368327 0.11117678
-0.24184427 0.05403883 0.11119737
-0.24184760 0.05439440 0.11121796
-0.24185093 0.05474996 0.11123855
-0.24185426 0.05510552 0.11125914
-0.24185759 0.05546108 0.11127972
-0.24186092 0.05581664 0.11130031
-0.24186424 0.05617220 0.11132090
-0.24186757 0.05652777 0.11134149
-0.24187090 0.05688333 0.11136208
-0.24187423 0.05723889 0.11138266
-0.24187756 0.05759445 0.11140325
-0.24188089 0.05795001 0.11142384
-0.24188421 0.05830557 0.11144443
-0.24188754 0.05866114 0.11146502
-0.24189087 0.05901670 0.11148560
-0.24189420 0.05937226 0.11150619
-0.24189753 0.05972782 0.11152678
-0.24190086 0.06008338 0.11154737
-0.24190418 0.06043894 0.11156796
-0.24190751 0.06079451 0.11158855
-0.24191084 0.06115007 0.11160913
-0.24191417 0.06150563 0.11162972
-0.24191750 0.06186119 0.11165031
-0.24192082 0.06221675 0.11167090
-0.24192415 0.06257231 0.11169149
-0.24192748 0.06292788 0.11171207
-0.24193081 0.06328344 0.11173266
-0.24193414 0.06363900 0.11175325
-0.24193747 0.06399456 0.11177384
-0.24194079 0.06435012 0.11179443
-0.24194412 0.06470568 0.11181501
-0.24194745 0.06506125 0.11183560
-0.24195078 0.06541681 0.11185619
-0.24195411 0.06577237 0.11187678
-0.24195744 0.06612793 0.11189737
-0.24196076 0.06648349 0.11191796
-0.24196409 0.06683906 0.11193854
-0.24196742 0.06719462 0.11195913
-0.24197075 0.06755018 0.11197972
-0.24197408 0.06790574 0.11200031
-0.24197741 0.06826130 0.11202090
-0.24198073 0.06861686 0.11204148
-0.24198406 0.06897243 0.11206207
-0.24198739 0.06932799 0.11208266
-0.24199072 0.06968355 0.11210325
-0.24199405 0.07003911 0.11212384
-0.24199738 0.07039467 0.11214442
-0.24200070 0.07075023 0.11216501
-0.24200403 0.07110580 0.11218560
-0.24200736 0.07146136 0.11220619
-0.24201069 0.07181692 0.11222678
-0.24201402 0.07217248 0.11224737
-0.24201735 0.07252804 0.11226795
-0.24202067 0.07288360 0.11228854
-0.24202400 0.07323916 0.11230913
-0.24202733 0.07359473 0.11232972
-0.24203066 0.07395029 0.11235031
-0.24203399 0.07430585 0.11237089
-0.24203732 0.07466141 0.11239148
-0.24204064 0.07501697 0.11241207
-0.24204397 0.07537253 0.11243266
-0.24204730 0.07572810 0.11245325
-0.24205063 0.07608366 0.11247383
-0.24205396 0.07643922 0.11249442
-0.24205729 0.07679478 0.11251501
-0.24206061 0.07715034 0.11253560
-0.24206394 0.07750590 0.11255619
-0.24206727 0.07786147 0.11257678
-0.24207060 0.07821703 0.11259736
-0.24207393 0.07857259 0.11261795
-0.24207726 0.07892815 0.11263854
-0.24208058 0.07928371 0.11265913
-0.24208391 0.07963928 0.11267972
-0.24208724 0.07999484 0.11270030
-0.24209057 0.08035040 0.11272089
-0.24209390 0.08070596 0.11274148
-0.24209722 0.08106152 0.11276207
-0.24210055 0.08141709 0.11278266
-0.24210388 0.08177265 0.11280324
-0.24242754 0.08224124 0.11187523
-0.24257760 0.09827177 0.11280344
-0.24258093 0.09862800 0.11282407
-0.24258426 0.09898423 0.11284470
-0.24258760 0.09934047 0.11286533
-0.24259093 0.09969670 0.11288595
-0.24259427 0.10005293 0.11290658
-0.24259760 0.10040916 0.11292721
-0.24260094 0.10076540 0.11294783
-0.24260427 0.10112164 0.11296846
-0.24260761 0.10147787 0.11298909
-0.24139875 0.10267552 0.11670849
-0.24135204 0.10300528 0.11687651
-0.24130541 0.10333485 0.11704436
-0.24129206 0.10368027 0.11711395
-0.24126209 0.10401757 0.11723260
-0.24123214 0.10435473 0.11735118
-0.24077759 0.10518568 0.11878241
-0.24078089 0.10553799 0.11880281
-0.24078418 0.10589029 0.11882320
-0.24080402 0.10625086 0.11879484
-0.24103931 0.10671946 0.11813121
-0.24267430 0.10860255 0.11340163
-0.24267763 0.10895878 0.11342226
-0.24268097 0.10931501 0.11344288
-0.24268430 0.10967125 0.11346351
-0.24268764 0.11002748 0.11348414
-0.24269097 0.11038372 0.11350476
-0.24269431 0.11073995 0.11352539
-0.24269764 0.11109618 0.11354602
-0.24270431 0.11180865 0.11358727
-0.24270764 0.11216488 0.11360790
-0.24271098 0.11252112 0.11362853
-0.24084655 0.12134313 0.11996415
-0.24071761 0.12161715 0.12037342
-0.24068790 0.12194944 0.12049088
-0.24065818 0.12228158 0.12060832
-0.24154680 0.13089367 0.11868969
-0.24151677 0.13122559 0.11880803
-0.24148677 0.13155739 0.11892630
-0.24146337 0.13259547 0.11908547
-0.24146668 0.13294869 0.11910592
-0.24146999 0.13330190 0.11912637
-0.24147329 0.13365511 0.11914682
-0.24149326 0.13401934 0.11911839
-0.24152988 0.13439469 0.11904106
-0.24153319 0.13474801 0.11906152
-0.24151984 0.13509020 0.11913086
-0.24142324 0.13537656 0.11944446
-0.24142655 0.13572964 0.11946490
-0.24154642 0.13616128 0.11914335
-0.24163612 0.14043603 0.11924222
-0.24160608 0.14076607 0.11936045
-0.24159272 0.14110770 0.11942976
-0.24159603 0.14146102 0.11945022
-0.24159934 0.14181434 0.11947068
-0.24301109 0.14458216 0.11548496
-0.24301443 0.14493840 0.11550559
-0.24301776 0.14529463 0.11552621
-0.24302110 0.14565087 0.11554684
-0.24302443 0.14600710 0.11556747
-0.24302777 0.14636333 0.11558810
-0.24281103 0.14655889 0.11625330
-0.24276364 0.14687754 0.11642244
-0.24276697 0.14723321 0.11644304
-0.24282102 0.14762621 0.11631510
-0.24304444 0.14814450 0.11569123
-0.24304777 0.14850073 0.11571186
-0.24305111 0.14885697 0.11573248
-0.24305444 0.14921320 0.11575311
-0.24305778 0.14956943 0.11577374
-0.24115952 0.15829054 0.12220190
-0.24107999 0.15857562 0.12246430
-0.24101711 0.15887383 0.12267804
-0.24102040 0.15922558 0.12269841
-0.24100716 0.15956386 0.12276708
-0.24097737 0.15988855 0.12288409
-0.24098066 0.16024020 0.12290445
-0.24105012 0.16064619 0.12273154
-0.24238021 0.16666314 0.11926926
-0.24238353 0.16701761 0.11928979
-0.24238684 0.16737208 0.11931031
-0.24242377 0.16775535 0.11923276
-0.24066963 -0.03626291 0.10583259
