ply
format ascii 1.0
element vertex 1408
property float x
property float y
property float z
end_header
0.02148856 -0.47293049 0.81831705
0.02144872 -0.47299950 0.81817311
0.02140887 -0.47306851 0.81802917
0.02136903 -0.47313752 0.81788523
0.02132918 -0.47320653 0.81774129
0.02128934 -0.47327554 0.81759735
0.02124949 -0.47334455 0.81745342
0.02120965 -0.47341356 0.81730948
0.02116980 -0.47348257 0.81716554
0.02112995 -0.47355158 0.81702160
0.02109011 -0.47362059 0.81687766
0.02105026 -0.47368960 0.81673372
0.02101042 -0.47375861 0.81658978
0.02097057 -0.47382762 0.81644585
0.02093073 -0.47389663 0.81630191
0.02089088 -0.47396564 0.81615797
0.02085104 -0.47403465 0.81601403
0.02081119 -0.47410366 0.81587009
0.02077134 -0.47417267 0.81572615
0.02073150 -0.47424168 0.81558221
0.02069165 -0.47431069 0.81543828
0.02065181 -0.47437970 0.81529434
0.02061196 -0.47444871 0.81515040
0.02057212 -0.47451772 0.81500646
0.02053227 -0.47458673 0.81486253
0.02049243 -0.47465575 0.81471858
0.02045258 -0.47472476 0.81457464
0.02041274 -0.47479377 0.81443071
0.02037289 -0.47486278 0.81428677
0.02033305 -0.47493179 0.81414283
0.02029320 -0.47500079 0.81399889
0.02025336 -0.47506980 0.81385495
0.02005413 -0.47541486 0.81313526
0.02001428 -0.47548387 0.81299132
0.01997444 -0.47555288 0.81284738
0.01993459 -0.47562189 0.81270345
0.01989475 -0.47569090 0.81255951
0.01985490 -0.47575991 0.81241556
0.01981506 -0.47582892 0.81227163
0.01977521 -0.47589793 0.81212769
0.01972348 -0.47591144 0.81195228
0.01968363 -0.47598044 0.81180836
0.01937676 -0.47658803 0.81068831
0.01933691 -0.47665704 0.81054436
0.01921737 -0.47686407 0.81011255
0.01917753 -0.47693308 0.80996861
0.01897830 -0.47727813 0.80924892
0.01893846 -0.47734714 0.80910498
0.01873923 -0.47769219 0.80838529
0.01869938 -0.47776120 0.80824135
0.01865954 -0.47783021 0.80809741
0.01861969 -0.47789922 0.80795347
0.01857985 -0.47796823 0.80780953
0.01802201 -0.47893438 0.80579439
0.01798217 -0.47900339 0.80565046
0.01794232 -0.47907240 0.80550652
0.01790248 -0.47914141 0.80536258
0.01786263 -0.47921042 0.80521864
0.01782279 -0.47927943 0.80507470
0.01734464 -0.48010755 0.80334744
0.01730479 -0.48017656 0.80320350
0.01726495 -0.48024557 0.80305956
0.01722510 -0.48031458 0.80291562
0.01718526 -0.48038359 0.80277168
0.01714541 -0.48045260 0.80262774
0.01710557 -0.48052161 0.80248381
0.01706572 -0.48059062 0.80233987
0.01702588 -0.48065963 0.80219593
0.01575082 -0.48286796 0.79758990
0.01491407 -0.48431717 0.79456719
0.01487423 -0.48438618 0.79442325
0.01483438 -0.48445519 0.79427931
0.01479453 -0.48452420 0.79413537
0.01475469 -0.48459321 0.79399143
0.01471484 -0.48466222 0.79384749
0.01467500 -0.48473123 0.79370355
0.01463515 -0.48480024 0.79355962
0.01459531 -0.48486925 0.79341568
0.01455546 -0.48493827 0.79327174
0.01451562 -0.48500727 0.79312780
0.01423670 -0.48549035 0.79212023
0.01419685 -0.48555936 0.79197629
0.01415701 -0.48562837 0.79183235
0.01410285 -0.48562531 0.79165131
0.01404771 -0.48561716 0.79146769
0.01400788 -0.48568615 0.79132379
0.01280226 -0.48797471 0.78693844
0.01276242 -0.48804372 0.78679451
0.01264288 -0.48825075 0.78636269
0.01260304 -0.48831976 0.78621875
0.01248350 -0.48852679 0.78578693
0.01244366 -0.48859580 0.78564300
0.01240381 -0.48866482 0.78549906
0.01228427 -0.48887185 0.78506724
0.01224443 -0.48894086 0.78492330
0.01220458 -0.48900987 0.78477936
0.01216474 -0.48907888 0.78463543
0.01212489 -0.48914789 0.78449149
0.01208505 -0.48921690 0.78434755
0.01204520 -0.48928591 0.78420361
0.00431519 -0.50267389 0.75627953
0.00427535 -0.50274290 0.75613559
0.00423550 -0.50281191 0.75599165
0.00419566 -0.50288092 0.75584771
0.00415581 -0.50294993 0.75570378
0.00411597 -0.50301894 0.75555984
0.00407612 -0.50308795 0.75541590
0.00403628 -0.50315696 0.75527196
0.00399643 -0.50322597 0.75512802
0.00395658 -0.50329498 0.75498408
0.00391674 -0.50336399 0.75484014
0.00387689 -0.50343300 0.75469621
0.00383705 -0.50350201 0.75455227
0.00351829 -0.50405409 0.75340076
0.00347844 -0.50412310 0.75325682
0.00168540 -0.50722856 0.74677959
0.00164555 -0.50729757 0.74663565
0.00160571 -0.50736658 0.74649171
0.00156586 -0.50743559 0.74634777
0.00152602 -0.50750460 0.74620383
0.00148617 -0.50757361 0.74605989
0.00144632 -0.50764262 0.74591595
0.00140648 -0.50771163 0.74577202
0.00136663 -0.50778064 0.74562808
0.00132679 -0.50784965 0.74548414
0.00128694 -0.50791866 0.74534020
0.00013143 -0.50991996 0.74116598
0.00009158 -0.50998897 0.74102204
0.00005174 -0.51005798 0.74087810
0.00001189 -0.51012699 0.74073417
0.02297075 -0.47044389 0.82345939
0.02292980 -0.47050790 0.82331252
0.02288887 -0.47057191 0.82316566
0.02284794 -0.47063592 0.82301879
0.02280697 -0.47069989 0.82287191
0.02248396 -0.47148070 0.82167168
0.02244411 -0.47154971 0.82152774
0.02240426 -0.47161872 0.82138380
0.02236442 -0.47168773 0.82123986
0.02232457 -0.47175674 0.82109592
0.02228473 -0.47182575 0.82095198
0.02224488 -0.47189476 0.82080805
0.02220504 -0.47196377 0.82066411
0.02216519 -0.47203278 0.82052017
0.02212535 -0.47210179 0.82037623
0.02208550 -0.47217080 0.82023229
0.02204566 -0.47223981 0.82008835
0.02200581 -0.47230882 0.81994441
0.02196597 -0.47237783 0.81980047
0.02192612 -0.47244684 0.81965654
0.02188628 -0.47251585 0.81951260
0.02184643 -0.47258486 0.81936866
0.02180658 -0.47265387 0.81922472
0.02176674 -0.47272288 0.81908078
0.02172689 -0.47279189 0.81893684
0.02168705 -0.47286090 0.81879290
0.02164720 -0.47292991 0.81864897
0.02160736 -0.47299892 0.81850503
0.02156751 -0.47306793 0.81836109
0.02152767 -0.47313694 0.81821715
0.02148782 -0.47320595 0.81807321
0.02144797 -0.47327496 0.81792927
0.02140813 -0.47334397 0.81778533
0.02136828 -0.47341298 0.81764140
0.02132844 -0.47348199 0.81749746
0.02128859 -0.47355100 0.81735352
0.02124875 -0.47362001 0.81720958
0.02120890 -0.47368902 0.81706564
0.02116906 -0.47375804 0.81692170
0.02112921 -0.47382705 0.81677776
0.02108937 -0.47389606 0.81663383
0.02104952 -0.47396506 0.81648989
0.02100968 -0.47403407 0.81634595
0.02096983 -0.47410308 0.81620201
0.02092999 -0.47417209 0.81605807
0.02089014 -0.47424111 0.81591413
0.02085029 -0.47431012 0.81577019
0.02081045 -0.47437913 0.81562625
0.02077060 -0.47444814 0.81548232
0.02073076 -0.47451715 0.81533838
0.02069091 -0.47458616 0.81519444
0.02065107 -0.47465517 0.81505050
0.02061122 -0.47472418 0.81490657
0.02057138 -0.47479319 0.81476262
0.02053153 -0.47486220 0.81461868
0.02049169 -0.47493121 0.81447475
0.02045184 -0.47500022 0.81433081
0.02041200 -0.47506923 0.81418687
0.02037215 -0.47513824 0.81404293
0.02033230 -0.47520725 0.81389900
0.02021277 -0.47541428 0.81346718
0.02017292 -0.47548329 0.81332324
0.02013308 -0.47555230 0.81317930
0.02009323 -0.47562131 0.81303536
0.02005339 -0.47569032 0.81289143
0.02001354 -0.47575933 0.81274749
0.01997370 -0.47582834 0.81260355
0.01993385 -0.47589735 0.81245961
0.01989400 -0.47596636 0.81231567
0.01985416 -0.47603537 0.81217173
0.01981431 -0.47610438 0.81202779
0.01945571 -0.47672547 0.81073235
0.01941586 -0.47679448 0.81058841
0.01929632 -0.47700151 0.81015659
0.01925648 -0.47707052 0.81001265
0.01909710 -0.47734657 0.80943690
0.01905725 -0.47741558 0.80929296
0.01901741 -0.47748458 0.80914902
0.01806112 -0.47914083 0.80569450
0.01802127 -0.47920984 0.80555056
0.01798143 -0.47927885 0.80540662
0.01794158 -0.47934786 0.80526268
0.01790173 -0.47941687 0.80511874
0.01750328 -0.48010697 0.80367936
0.01746344 -0.48017598 0.80353542
0.01742359 -0.48024499 0.80339148
0.01738374 -0.48031400 0.80324754
0.01734390 -0.48038301 0.80310360
0.01730405 -0.48045202 0.80295966
0.01726421 -0.48052103 0.80281572
0.01722436 -0.48059004 0.80267179
0.01718452 -0.48065905 0.80252785
0.01714467 -0.48072806 0.80238391
0.01710483 -0.48079708 0.80223997
0.01674622 -0.48141817 0.80094452
0.01590946 -0.48286738 0.79792182
0.01586962 -0.48293639 0.79777787
0.01582977 -0.48300540 0.79763394
0.01495317 -0.48452363 0.79446729
0.01491333 -0.48459264 0.79432335
0.01487348 -0.48466165 0.79417941
0.01483364 -0.48473066 0.79403547
0.01479379 -0.48479967 0.79389153
0.01475395 -0.48486868 0.79374760
0.01471410 -0.48493769 0.79360366
0.01467426 -0.48500670 0.79345972
0.01463441 -0.48507571 0.79331578
0.01459457 -0.48514472 0.79317184
0.01431565 -0.48562779 0.79216427
0.01427580 -0.48569680 0.79202033
0.01423596 -0.48576581 0.79187640
0.01418383 -0.48577302 0.79170064
0.01412663 -0.48575455 0.79151172
0.01408680 -0.48582354 0.79136782
0.01288121 -0.48811216 0.78698248
0.01284137 -0.48818117 0.78683855
0.01272183 -0.48838820 0.78640673
0.01268199 -0.48845721 0.78626279
0.01256245 -0.48866424 0.78583098
0.01252261 -0.48873325 0.78568704
0.01248276 -0.48880226 0.78554310
0.01244291 -0.48887127 0.78539916
0.01240307 -0.48894028 0.78525522
0.01236322 -0.48900929 0.78511128
0.01232338 -0.48907830 0.78496734
0.01228353 -0.48914731 0.78482341
0.01224369 -0.48921632 0.78467947
0.01220384 -0.48928533 0.78453553
0.01216400 -0.48935434 0.78439159
0.01212415 -0.48942335 0.78424765
0.01208431 -0.48949236 0.78410371
0.00439414 -0.50281133 0.75632357
0.00435430 -0.50288034 0.75617963
0.00431445 -0.50294935 0.75603569
0.00427461 -0.50301836 0.75589176
0.00423476 -0.50308737 0.75574782
0.00419492 -0.50315638 0.75560388
0.00415507 -0.50322539 0.75545994
0.00411522 -0.50329440 0.75531600
0.00407538 -0.50336341 0.75517206
0.00403553 -0.50343242 0.75502812
0.00399569 -0.50350143 0.75488419
0.00395584 -0.50357044 0.75474025
0.00391600 -0.50363945 0.75459631
0.00359723 -0.50419153 0.75344480
0.00355739 -0.50426054 0.75330086
0.00176435 -0.50736600 0.74682363
0.00172450 -0.50743501 0.74667969
0.00168466 -0.50750402 0.74653575
0.00164481 -0.50757303 0.74639181
0.00152527 -0.50778006 0.74596000
0.00148543 -0.50784907 0.74581606
0.00144558 -0.50791808 0.74567212
0.00140574 -0.50798709 0.74552818
0.00136589 -0.50805610 0.74538424
0.00132605 -0.50812512 0.74524030
0.00021038 -0.51005740 0.74121002
0.00017053 -0.51012641 0.74106609
0.00013068 -0.51019542 0.74092215
0.00009084 -0.51026443 0.74077821
0.02304970 -0.47058133 0.82350343
0.02300763 -0.47064032 0.82335357
0.02296669 -0.47070433 0.82320670
0.02292575 -0.47076834 0.82305984
0.02288592 -0.47083733 0.82291595
0.02256291 -0.47161814 0.82171572
0.02252306 -0.47168715 0.82157178
0.02248321 -0.47175616 0.82142784
0.02244337 -0.47182517 0.82128390
0.02240352 -0.47189418 0.82113996
0.02236368 -0.47196319 0.82099602
0.02232383 -0.47203220 0.82085209
0.02228399 -0.47210121 0.82070815
0.02224414 -0.47217022 0.82056421
0.02220430 -0.47223923 0.82042027
0.02216445 -0.47230824 0.82027633
0.02212461 -0.47237725 0.82013239
0.02208476 -0.47244626 0.81998845
0.02204491 -0.47251527 0.81984452
0.02200507 -0.47258428 0.81970058
0.02196522 -0.47265329 0.81955664
0.02192538 -0.47272230 0.81941270
0.02188553 -0.47279132 0.81926876
0.02184569 -0.47286033 0.81912482
0.02180584 -0.47292934 0.81898088
0.02176600 -0.47299834 0.81883695
0.02172615 -0.47306735 0.81869301
0.02168631 -0.47313636 0.81854907
0.02164646 -0.47320537 0.81840513
0.02160662 -0.47327438 0.81826119
0.02156677 -0.47334340 0.81811725
0.02152692 -0.47341241 0.81797331
0.02148708 -0.47348142 0.81782937
0.02144723 -0.47355043 0.81768544
0.02140739 -0.47361944 0.81754150
0.02136754 -0.47368845 0.81739756
0.02132770 -0.47375746 0.81725362
0.02128785 -0.47382647 0.81710969
0.02124801 -0.47389548 0.81696574
0.02120816 -0.47396449 0.81682180
0.02116832 -0.47403350 0.81667787
0.02112847 -0.47410251 0.81653393
0.02108863 -0.47417152 0.81638999
0.02104878 -0.47424053 0.81624605
0.02100893 -0.47430954 0.81610212
0.02096909 -0.47437855 0.81595817
0.02092924 -0.47444756 0.81581423
0.02088940 -0.47451657 0.81567030
0.02084955 -0.47458558 0.81552636
0.02080971 -0.47465459 0.81538242
0.02076986 -0.47472360 0.81523848
0.02073002 -0.47479261 0.81509455
0.02069017 -0.47486162 0.81495061
0.02065032 -0.47493063 0.81480666
0.02061048 -0.47499964 0.81466273
0.02057063 -0.47506865 0.81451879
0.02053079 -0.47513766 0.81437485
0.02049094 -0.47520667 0.81423091
0.02045110 -0.47527568 0.81408697
0.02041125 -0.47534469 0.81394304
0.02037141 -0.47541370 0.81379910
0.02033156 -0.47548271 0.81365515
0.02029172 -0.47555172 0.81351122
0.02025187 -0.47562073 0.81336728
0.02021203 -0.47568974 0.81322334
0.02017218 -0.47575875 0.81307940
0.02013234 -0.47582776 0.81293547
0.02009249 -0.47589677 0.81279153
0.02005265 -0.47596578 0.81264759
0.02001280 -0.47603479 0.81250365
0.01997295 -0.47610380 0.81235971
0.01993311 -0.47617281 0.81221577
0.01989326 -0.47624182 0.81207183
0.01957450 -0.47679391 0.81092033
0.01953465 -0.47686292 0.81077639
0.01949481 -0.47693193 0.81063245
0.01937527 -0.47713896 0.81020063
0.01933543 -0.47720797 0.81005669
0.01917605 -0.47748401 0.80948094
0.01913620 -0.47755302 0.80933700
0.01909636 -0.47762203 0.80919306
0.01865806 -0.47838114 0.80760974
0.01861821 -0.47845015 0.80746580
0.01814007 -0.47927827 0.80573854
0.01810022 -0.47934728 0.80559460
0.01806037 -0.47941629 0.80545066
0.01802053 -0.47948530 0.80530672
0.01798068 -0.47955431 0.80516278
0.01762207 -0.48017541 0.80386734
0.01758223 -0.48024442 0.80372340
0.01754238 -0.48031343 0.80357946
0.01750254 -0.48038244 0.80343552
0.01746269 -0.48045145 0.80329158
0.01742285 -0.48052046 0.80314764
0.01738300 -0.48058947 0.80300371
0.01734316 -0.48065848 0.80285976
0.01730331 -0.48072749 0.80271583
0.01726347 -0.48079650 0.80257189
0.01722362 -0.48086551 0.80242795
0.01698455 -0.48127957 0.80156432
0.01686501 -0.48148660 0.80113250
0.01682517 -0.48155561 0.80098856
0.01678532 -0.48162462 0.80084463
0.01602826 -0.48293581 0.79810979
0.01598841 -0.48300482 0.79796586
0.01594857 -0.48307383 0.79782192
0.01590872 -0.48314284 0.79767798
0.01499228 -0.48473008 0.79436739
0.01495243 -0.48479909 0.79422345
0.01491259 -0.48486810 0.79407952
0.01487274 -0.48493711 0.79393557
0.01483290 -0.48500612 0.79379164
0.01479305 -0.48507513 0.79364770
0.01475321 -0.48514414 0.79350376
0.01471336 -0.48521315 0.79335982
0.01467352 -0.48528216 0.79321588
0.01439460 -0.48576523 0.79220831
0.01435475 -0.48583424 0.79206437
0.01431491 -0.48590325 0.79192044
0.01427506 -0.48597226 0.79177650
0.01422294 -0.48597947 0.79160076
0.01300001 -0.48818059 0.78717046
0.01296016 -0.48824960 0.78702653
0.01292032 -0.48831861 0.78688259
0.01280078 -0.48852564 0.78645077
0.01276094 -0.48859465 0.78630683
0.01260155 -0.48887069 0.78573108
0.01256171 -0.48893970 0.78558714
0.01252186 -0.48900871 0.78544320
0.01248202 -0.48907772 0.78529926
0.01244217 -0.48914673 0.78515532
0.01240233 -0.48921574 0.78501138
0.01236248 -0.48928475 0.78486745
0.01232264 -0.48935376 0.78472351
0.01228279 -0.48942277 0.78457957
0.01224295 -0.48949178 0.78443563
0.01220310 -0.48956079 0.78429169
0.01216326 -0.48962980 0.78414775
0.00447309 -0.50294877 0.75636761
0.00443325 -0.50301778 0.75622367
0.00439340 -0.50308679 0.75607973
0.00435356 -0.50315580 0.75593580
0.00431371 -0.50322481 0.75579186
0.00427386 -0.50329382 0.75564792
0.00423402 -0.50336283 0.75550398
0.00419417 -0.50343184 0.75536004
0.00415433 -0.50350085 0.75521610
0.00411448 -0.50356986 0.75507216
0.00407464 -0.50363887 0.75492823
0.00403479 -0.50370789 0.75478429
0.00399495 -0.50377690 0.75464035
0.00367618 -0.50432898 0.75348884
0.00363634 -0.50439799 0.75334490
0.00248082 -0.50639928 0.74917068
0.00244098 -0.50646829 0.74902675
0.00240113 -0.50653730 0.74888281
0.00184330 -0.50750345 0.74686767
0.00180345 -0.50757246 0.74672373
0.00176360 -0.50764147 0.74657979
0.00172376 -0.50771048 0.74643585
0.00160422 -0.50791751 0.74600404
0.00156438 -0.50798652 0.74586010
0.00152453 -0.50805553 0.74571616
0.00148469 -0.50812454 0.74557222
0.00144484 -0.50819355 0.74542828
0.00140500 -0.50826256 0.74528434
0.00136515 -0.50833157 0.74514041
0.00132531 -0.50840058 0.74499647
0.00128546 -0.50846959 0.74485253
0.00124561 -0.50853860 0.74470859
0.00028932 -0.51019484 0.74125406
0.00024948 -0.51026385 0.74111013
0.00020963 -0.51033286 0.74096619
0.00016979 -0.51040187 0.74082225
0.02312751 -0.47071375 0.82354449
0.02308657 -0.47077776 0.82339761
0.02304450 -0.47083675 0.82324776
0.02300357 -0.47090076 0.82310089
0.02296374 -0.47096974 0.82295700
0.02260201 -0.47182459 0.82161582
0.02256216 -0.47189361 0.82147188
0.02252232 -0.47196262 0.82132794
0.02248247 -0.47203162 0.82118400
0.02244263 -0.47210063 0.82104006
0.02240278 -0.47216964 0.82089613
0.02236294 -0.47223865 0.82075219
0.02232309 -0.47230766 0.82060825
0.02228324 -0.47237668 0.82046431
0.02224340 -0.47244569 0.82032037
0.02220355 -0.47251470 0.82017643
0.02216371 -0.47258371 0.82003249
0.02212386 -0.47265272 0.81988856
0.02208402 -0.47272173 0.81974462
0.02204417 -0.47279074 0.81960068
0.02200433 -0.47285975 0.81945674
0.02196448 -0.47292876 0.81931280
0.02192464 -0.47299777 0.81916886
0.02188479 -0.47306678 0.81902492
0.02184495 -0.47313579 0.81888099
0.02180510 -0.47320480 0.81873705
0.02176526 -0.47327381 0.81859311
0.02172541 -0.47334282 0.81844917
0.02168557 -0.47341183 0.81830524
0.02164572 -0.47348084 0.81816129
0.02160587 -0.47354985 0.81801735
0.02156603 -0.47361886 0.81787342
0.02152618 -0.47368787 0.81772948
0.02148634 -0.47375688 0.81758554
0.02144649 -0.47382589 0.81744160
0.02140665 -0.47389490 0.81729766
0.02136680 -0.47396391 0.81715373
0.02132696 -0.47403292 0.81700978
0.02128711 -0.47410193 0.81686585
0.02124726 -0.47417094 0.81672191
0.02120742 -0.47423995 0.81657797
0.02116757 -0.47430896 0.81643403
0.02112773 -0.47437797 0.81629009
0.02108788 -0.47444698 0.81614616
0.02104804 -0.47451599 0.81600221
0.02100819 -0.47458500 0.81585827
0.02096835 -0.47465401 0.81571434
0.02092850 -0.47472302 0.81557040
0.02088866 -0.47479203 0.81542646
0.02084881 -0.47486104 0.81528252
0.02080897 -0.47493005 0.81513859
0.02076912 -0.47499906 0.81499465
0.02072927 -0.47506807 0.81485070
0.02068943 -0.47513708 0.81470677
0.02064958 -0.47520609 0.81456283
0.02060974 -0.47527510 0.81441889
0.02056989 -0.47534411 0.81427495
0.02053005 -0.47541312 0.81413102
0.02049020 -0.47548213 0.81398708
0.02045036 -0.47555114 0.81384314
0.02041051 -0.47562016 0.81369920
0.02037067 -0.47568917 0.81355526
0.02033082 -0.47575818 0.81341132
0.02029098 -0.47582719 0.81326738
0.02025113 -0.47589620 0.81312345
0.02021128 -0.47596521 0.81297951
0.02017144 -0.47603422 0.81283557
0.02013159 -0.47610322 0.81269163
0.02009175 -0.47617224 0.81254769
0.02005190 -0.47624125 0.81240375
0.02001206 -0.47631026 0.81225981
0.01997221 -0.47637927 0.81211587
0.01993237 -0.47644828 0.81197194
0.01969329 -0.47686234 0.81110830
0.01965345 -0.47693135 0.81096437
0.01961360 -0.47700036 0.81082043
0.01957376 -0.47706937 0.81067649
0.01953391 -0.47713838 0.81053255
0.01949407 -0.47720739 0.81038861
0.01945422 -0.47727640 0.81024467
0.01941438 -0.47734541 0.81010073
0.01925499 -0.47762145 0.80952498
0.01921515 -0.47769046 0.80938104
0.01917530 -0.47775947 0.80923710
0.01873700 -0.47851858 0.80765378
0.01869716 -0.47858759 0.80750984
0.01865731 -0.47865660 0.80736590
0.01861747 -0.47872561 0.80722196
0.01857762 -0.47879462 0.80707803
0.01821901 -0.47941572 0.80578258
0.01817917 -0.47948473 0.80563864
0.01813932 -0.47955374 0.80549470
0.01809948 -0.47962275 0.80535076
0.01805963 -0.47969176 0.80520683
0.01774087 -0.48024384 0.80405531
0.01770102 -0.48031285 0.80391138
0.01766118 -0.48038186 0.80376744
0.01762133 -0.48045087 0.80362350
0.01758149 -0.48051988 0.80347956
0.01754164 -0.48058889 0.80333562
0.01750180 -0.48065790 0.80319168
0.01746195 -0.48072691 0.80304775
0.01742211 -0.48079592 0.80290381
0.01710334 -0.48134800 0.80175230
0.01706350 -0.48141701 0.80160836
0.01702365 -0.48148602 0.80146442
0.01698381 -0.48155503 0.80132048
0.01694396 -0.48162404 0.80117654
0.01690412 -0.48169305 0.80103261
0.01686427 -0.48176206 0.80088867
0.01610721 -0.48307326 0.79815384
0.01606736 -0.48314227 0.79800990
0.01602752 -0.48321128 0.79786596
0.01598767 -0.48328029 0.79772202
0.01503138 -0.48493653 0.79426749
0.01499154 -0.48500554 0.79412356
0.01495169 -0.48507455 0.79397962
0.01491185 -0.48514356 0.79383568
0.01487200 -0.48521257 0.79369174
0.01483216 -0.48528158 0.79354780
0.01479231 -0.48535059 0.79340386
0.01475246 -0.48541960 0.79325992
0.01447355 -0.48590268 0.79225235
0.01443370 -0.48597169 0.79210842
0.01439386 -0.48604070 0.79196448
0.01435401 -0.48610971 0.79182054
0.01307896 -0.48831803 0.78721450
0.01303911 -0.48838704 0.78707057
0.01299927 -0.48845605 0.78692663
0.01287973 -0.48866308 0.78649481
0.01283989 -0.48873209 0.78635087
0.01268050 -0.48900813 0.78577512
0.01264066 -0.48907715 0.78563118
0.01260081 -0.48914615 0.78548724
0.01256097 -0.48921516 0.78534330
0.01252112 -0.48928417 0.78519937
0.01248128 -0.48935319 0.78505543
0.01244143 -0.48942220 0.78491149
0.01240159 -0.48949121 0.78476755
0.01236174 -0.48956022 0.78462361
0.01232189 -0.48962923 0.78447967
0.01228205 -0.48969824 0.78433573
0.01224220 -0.48976725 0.78419180
0.00451220 -0.50315523 0.75626771
0.00447235 -0.50322424 0.75612378
0.00443250 -0.50329325 0.75597984
0.00439266 -0.50336226 0.75583590
0.00435281 -0.50343127 0.75569196
0.00431297 -0.50350028 0.75554802
0.00427312 -0.50356929 0.75540408
0.00423328 -0.50363830 0.75526014
0.00419343 -0.50370731 0.75511621
0.00415359 -0.50377632 0.75497227
0.00411374 -0.50384533 0.75482833
0.00407390 -0.50391434 0.75468439
0.00403405 -0.50398335 0.75454045
0.00255977 -0.50653673 0.74921473
0.00251993 -0.50660574 0.74907079
0.00248008 -0.50667475 0.74892685
0.00188240 -0.50770990 0.74676777
0.00184255 -0.50777891 0.74662383
0.00180271 -0.50784792 0.74647989
0.00176286 -0.50791693 0.74633595
0.00164333 -0.50812396 0.74590414
0.00160348 -0.50819297 0.74576020
0.00156364 -0.50826198 0.74561626
0.00152379 -0.50833099 0.74547232
0.00148395 -0.50840000 0.74532839
0.00144410 -0.50846901 0.74518445
0.00140425 -0.50853802 0.74504051
0.00136441 -0.50860703 0.74489657
0.00132456 -0.50867604 0.74475263
0.00128472 -0.50874505 0.74460869
0.00124487 -0.50881406 0.74446475
0.00036827 -0.51033229 0.74129810
0.00032843 -0.51040130 0.74115417
0.00028858 -0.51047031 0.74101023
0.00024874 -0.51053932 0.74086629
0.02320643 -0.47085114 0.82358851
0.02316550 -0.47091516 0.82344164
0.02312342 -0.47097414 0.82329178
0.02308249 -0.47103815 0.82314492
0.02304266 -0.47110714 0.82300103
0.02268099 -0.47196209 0.82165988
0.02264114 -0.47203110 0.82151594
0.02260130 -0.47210011 0.82137200
0.02256145 -0.47216912 0.82122806
0.02252160 -0.47223813 0.82108412
0.02248176 -0.47230714 0.82094018
0.02244191 -0.47237615 0.82079625
0.02240207 -0.47244516 0.82065231
0.02236222 -0.47251417 0.82050836
0.02232238 -0.47258318 0.82036443
0.02228253 -0.47265219 0.82022049
0.02224269 -0.47272120 0.82007655
0.02220284 -0.47279021 0.81993261
0.02216300 -0.47285922 0.81978868
0.02212315 -0.47292823 0.81964474
0.02208331 -0.47299724 0.81950080
0.02204346 -0.47306625 0.81935686
0.02200361 -0.47313526 0.81921292
0.02196377 -0.47320427 0.81906898
0.02192392 -0.47327328 0.81892504
0.02188408 -0.47334229 0.81878111
0.02184423 -0.47341130 0.81863717
0.02180439 -0.47348031 0.81849323
0.02176454 -0.47354932 0.81834929
0.02172470 -0.47361833 0.81820535
0.02168485 -0.47368734 0.81806141
0.02164501 -0.47375635 0.81791747
0.02160516 -0.47382536 0.81777353
0.02156532 -0.47389437 0.81762960
0.02152547 -0.47396338 0.81748566
0.02148563 -0.47403239 0.81734172
0.02144578 -0.47410140 0.81719778
0.02140593 -0.47417041 0.81705384
0.02136609 -0.47423942 0.81690990
0.02132624 -0.47430843 0.81676596
0.02128640 -0.47437744 0.81662203
0.02124655 -0.47444645 0.81647809
0.02120671 -0.47451546 0.81633415
0.02116686 -0.47458447 0.81619021
0.02112701 -0.47465349 0.81604627
0.02108717 -0.47472250 0.81590233
0.02104732 -0.47479151 0.81575839
0.02100748 -0.47486052 0.81561446
0.02096763 -0.47492953 0.81547052
0.02092779 -0.47499853 0.81532658
0.02088794 -0.47506754 0.81518264
0.02084810 -0.47513655 0.81503871
0.02080825 -0.47520557 0.81489476
0.02076841 -0.47527458 0.81475082
0.02072856 -0.47534359 0.81460689
0.02068872 -0.47541260 0.81446295
0.02064887 -0.47548161 0.81431901
0.02060903 -0.47555062 0.81417507
0.02056918 -0.47561963 0.81403113
0.02052934 -0.47568864 0.81388720
0.02048949 -0.47575765 0.81374325
0.02044964 -0.47582666 0.81359932
0.02040980 -0.47589567 0.81345538
0.02036995 -0.47596468 0.81331144
0.02033011 -0.47603369 0.81316750
0.02029026 -0.47610270 0.81302356
0.02025042 -0.47617171 0.81287963
0.02021057 -0.47624072 0.81273569
0.02017073 -0.47630973 0.81259174
0.02013088 -0.47637874 0.81244781
0.02009104 -0.47644775 0.81230387
0.02005119 -0.47651676 0.81215993
0.02001134 -0.47658577 0.81201599
0.01981212 -0.47693082 0.81129630
0.01977227 -0.47699983 0.81115236
0.01973243 -0.47706884 0.81100842
0.01969258 -0.47713785 0.81086449
0.01965274 -0.47720686 0.81072054
0.01961289 -0.47727587 0.81057661
0.01957305 -0.47734488 0.81043267
0.01953320 -0.47741389 0.81028873
0.01949335 -0.47748290 0.81014479
0.01937382 -0.47768993 0.80971298
0.01933397 -0.47775894 0.80956904
0.01929413 -0.47782795 0.80942510
0.01925428 -0.47789696 0.80928116
0.01881598 -0.47865608 0.80769784
0.01877614 -0.47872509 0.80755390
0.01873629 -0.47879410 0.80740996
0.01869645 -0.47886311 0.80726602
0.01865660 -0.47893212 0.80712208
0.01861676 -0.47900113 0.80697814
0.01829799 -0.47955321 0.80582664
0.01825815 -0.47962222 0.80568270
0.01817846 -0.47976024 0.80539482
0.01813861 -0.47982925 0.80525088
0.01809876 -0.47989826 0.80510694
0.01793938 -0.48017430 0.80453119
0.01789954 -0.48024331 0.80438725
0.01785969 -0.48031232 0.80424331
0.01781985 -0.48038133 0.80409937
0.01778000 -0.48045034 0.80395543
0.01774016 -0.48051935 0.80381150
0.01770031 -0.48058836 0.80366756
0.01766047 -0.48065737 0.80352362
0.01762062 -0.48072638 0.80337968
0.01758077 -0.48079539 0.80323574
0.01754093 -0.48086440 0.80309180
0.01718232 -0.48148550 0.80179635
0.01714248 -0.48155450 0.80165242
0.01710263 -0.48162351 0.80150848
0.01706279 -0.48169252 0.80136454
0.01702294 -0.48176154 0.80122060
0.01698309 -0.48183055 0.80107666
0.01694325 -0.48189956 0.80093272
0.01678387 -0.48217560 0.80035697
0.01622603 -0.48314174 0.79834183
0.01618619 -0.48321075 0.79819789
0.01614634 -0.48327976 0.79805395
0.01610649 -0.48334877 0.79791001
0.01606665 -0.48341778 0.79776608
0.01507051 -0.48514303 0.79416761
0.01503067 -0.48521205 0.79402367
0.01499082 -0.48528106 0.79387973
0.01495098 -0.48535007 0.79373580
0.01491113 -0.48541908 0.79359186
0.01487129 -0.48548809 0.79344792
0.01483144 -0.48555710 0.79330398
0.01455252 -0.48604017 0.79229641
0.01451268 -0.48610918 0.79215247
0.01447283 -0.48617819 0.79200853
0.01443299 -0.48624720 0.79186459
0.01319778 -0.48838652 0.78740250
0.01315793 -0.48845553 0.78725856
0.01311809 -0.48852454 0.78711462
0.01307824 -0.48859354 0.78697069
0.01295871 -0.48880058 0.78653887
0.01291886 -0.48886959 0.78639493
0.01271964 -0.48921464 0.78567524
0.01267979 -0.48928365 0.78553130
0.01263995 -0.48935266 0.78538736
0.01260010 -0.48942167 0.78524342
0.01256025 -0.48949068 0.78509948
0.01252041 -0.48955969 0.78495554
0.01248056 -0.48962870 0.78481161
0.01244072 -0.48969771 0.78466767
0.01240087 -0.48976672 0.78452373
0.01236103 -0.48983573 0.78437979
0.01232118 -0.48990474 0.78423585
0.00459117 -0.50329272 0.75631177
0.00455133 -0.50336173 0.75616783
0.00451148 -0.50343074 0.75602389
0.00447164 -0.50349975 0.75587996
0.00443179 -0.50356876 0.75573602
0.00439195 -0.50363777 0.75559208
0.00435210 -0.50370678 0.75544814
0.00431226 -0.50377579 0.75530420
0.00427241 -0.50384480 0.75516026
0.00423256 -0.50391381 0.75501632
0.00419272 -0.50398282 0.75487239
0.00413910 -0.50397175 0.75469447
0.00409926 -0.50404075 0.75455055
0.00263875 -0.50667422 0.74925878
0.00259890 -0.50674323 0.74911484
0.00255906 -0.50681224 0.74897091
0.00196138 -0.50784739 0.74681183
0.00192153 -0.50791640 0.74666789
0.00188169 -0.50798541 0.74652395
0.00184184 -0.50805442 0.74638001
0.00168246 -0.50833046 0.74580426
0.00164261 -0.50839947 0.74566032
0.00160277 -0.50846848 0.74551638
0.00156292 -0.50853749 0.74537244
0.00152308 -0.50860650 0.74522850
0.00148323 -0.50867551 0.74508457
0.00144339 -0.50874452 0.74494063
0.00140354 -0.50881353 0.74479669
0.00136370 -0.50888255 0.74465275
0.00132385 -0.50895156 0.74450881
0.00128401 -0.50902057 0.74436487
0.00124416 -0.50908958 0.74422093
0.00044725 -0.51046978 0.74134216
0.00040741 -0.51053879 0.74119822
0.00036756 -0.51060780 0.74105428
0.00032772 -0.51067681 0.74091035
0.02328649 -0.47099356 0.82363553
0.02324442 -0.47105255 0.82348566
0.02320348 -0.47111656 0.82333880
0.02316254 -0.47118057 0.82319193
0.02312271 -0.47124956 0.82304804
0.02275994 -0.47209953 0.82170392
0.02272009 -0.47216854 0.82155998
0.02268024 -0.47223755 0.82141604
0.02264040 -0.47230656 0.82127210
0.02260055 -0.47237557 0.82112816
0.02256071 -0.47244458 0.82098423
0.02252086 -0.47251359 0.82084029
0.02248102 -0.47258260 0.82069635
0.02244117 -0.47265161 0.82055241
0.02240133 -0.47272062 0.82040847
0.02236148 -0.47278963 0.82026453
0.02232164 -0.47285864 0.82012059
0.02228179 -0.47292765 0.81997665
0.02224195 -0.47299666 0.81983272
0.02220210 -0.47306567 0.81968878
0.02216226 -0.47313468 0.81954484
0.02212241 -0.47320369 0.81940090
0.02208256 -0.47327270 0.81925696
0.02204272 -0.47334171 0.81911302
0.02200287 -0.47341072 0.81896908
0.02196303 -0.47347973 0.81882515
0.02192318 -0.47354874 0.81868121
0.02188334 -0.47361775 0.81853727
0.02184349 -0.47368676 0.81839333
0.02180365 -0.47375578 0.81824939
0.02176380 -0.47382479 0.81810545
0.02172395 -0.47389380 0.81796151
0.02168411 -0.47396281 0.81781758
0.02164426 -0.47403181 0.81767364
0.02160442 -0.47410082 0.81752970
0.02156457 -0.47416983 0.81738576
0.02152473 -0.47423884 0.81724183
0.02148488 -0.47430786 0.81709788
0.02144504 -0.47437687 0.81695394
0.02140519 -0.47444588 0.81681001
0.02136535 -0.47451489 0.81666607
0.02132550 -0.47458390 0.81652213
0.02128566 -0.47465291 0.81637819
0.02124581 -0.47472192 0.81623425
0.02120596 -0.47479093 0.81609031
0.02116612 -0.47485994 0.81594637
0.02112627 -0.47492895 0.81580244
0.02108643 -0.47499796 0.81565850
0.02104658 -0.47506697 0.81551456
0.02100674 -0.47513598 0.81537062
0.02096689 -0.47520499 0.81522668
0.02092705 -0.47527400 0.81508275
0.02088720 -0.47534301 0.81493880
0.02084736 -0.47541202 0.81479486
0.02080751 -0.47548103 0.81465093
0.02076767 -0.47555004 0.81450699
0.02072782 -0.47561905 0.81436305
0.02068798 -0.47568806 0.81421911
0.02064813 -0.47575707 0.81407518
0.02060828 -0.47582608 0.81393124
0.02056844 -0.47589509 0.81378729
0.02052859 -0.47596410 0.81364336
0.02048875 -0.47603311 0.81349942
0.02044890 -0.47610212 0.81335548
0.02040906 -0.47617113 0.81321154
0.02036921 -0.47624014 0.81306761
0.02032937 -0.47630915 0.81292367
0.02028952 -0.47637816 0.81277973
0.02024967 -0.47644717 0.81263579
0.02020983 -0.47651618 0.81249185
0.02016998 -0.47658519 0.81234791
0.02011819 -0.47659861 0.81217247
0.02007835 -0.47666761 0.81202854
0.01989107 -0.47706826 0.81134034
0.01985122 -0.47713727 0.81119640
0.01981138 -0.47720628 0.81105246
0.01977153 -0.47727529 0.81090853
0.01973168 -0.47734431 0.81076459
0.01969184 -0.47741332 0.81062065
0.01965199 -0.47748233 0.81047671
0.01961215 -0.47755133 0.81033277
0.01957230 -0.47762035 0.81018883
0.01945277 -0.47782738 0.80975702
0.01941292 -0.47789639 0.80961308
0.01937308 -0.47796540 0.80946914
0.01933323 -0.47803441 0.80932520
0.01929339 -0.47810342 0.80918126
0.01885509 -0.47886253 0.80759794
0.01881524 -0.47893154 0.80745400
0.01877540 -0.47900055 0.80731006
0.01873555 -0.47906956 0.80716612
0.01869570 -0.47913857 0.80702219
0.01865586 -0.47920758 0.80687824
0.01821756 -0.47996669 0.80529492
0.01817771 -0.48003570 0.80515098
0.01813787 -0.48010471 0.80500704
0.01809802 -0.48017372 0.80486311
0.01805818 -0.48024273 0.80471917
0.01801833 -0.48031174 0.80457523
0.01797849 -0.48038075 0.80443129
0.01793864 -0.48044976 0.80428735
0.01789880 -0.48051878 0.80414341
0.01785895 -0.48058778 0.80399947
0.01781911 -0.48065679 0.80385554
0.01777926 -0.48072580 0.80371160
0.01773941 -0.48079482 0.80356766
0.01769957 -0.48086383 0.80342372
0.01765972 -0.48093284 0.80327978
0.01761988 -0.48100185 0.80313584
0.01726127 -0.48162294 0.80184040
0.01722142 -0.48169195 0.80169646
0.01718158 -0.48176096 0.80155252
0.01714173 -0.48182997 0.80140858
0.01710189 -0.48189898 0.80126464
0.01706204 -0.48196799 0.80112070
0.01701272 -0.48199101 0.80095204
0.01697288 -0.48206001 0.80080812
0.01690266 -0.48224403 0.80054495
0.01686282 -0.48231304 0.80040101
0.01682297 -0.48238205 0.80025707
0.01678312 -0.48245106 0.80011313
0.01630498 -0.48327918 0.79838587
0.01626514 -0.48334819 0.79824193
0.01622529 -0.48341720 0.79809800
0.01618544 -0.48348621 0.79795405
0.01614560 -0.48355522 0.79781012
0.01610575 -0.48362423 0.79766618
0.01510962 -0.48534949 0.79406771
0.01506977 -0.48541850 0.79392378
0.01502993 -0.48548751 0.79377984
0.01499008 -0.48555652 0.79363590
0.01495024 -0.48562553 0.79349196
0.01491039 -0.48569454 0.79334802
0.01463147 -0.48617761 0.79234045
0.01459163 -0.48624662 0.79219651
0.01455178 -0.48631563 0.79205258
0.01451194 -0.48638464 0.79190863
0.01323688 -0.48859297 0.78730260
0.01319704 -0.48866198 0.78715866
0.01315719 -0.48873099 0.78701473
0.01279858 -0.48935208 0.78571928
0.01275874 -0.48942109 0.78557534
0.01271889 -0.48949010 0.78543140
0.01267905 -0.48955911 0.78528746
0.01263920 -0.48962812 0.78514352
0.01259936 -0.48969713 0.78499959
0.01255951 -0.48976614 0.78485565
0.01251967 -0.48983515 0.78471171
0.01247982 -0.48990416 0.78456777
0.01243998 -0.48997317 0.78442383
0.01240013 -0.49004218 0.78427989
0.00467012 -0.50343016 0.75635581
0.00463028 -0.50349917 0.75621187
0.00459043 -0.50356818 0.75606794
0.00455059 -0.50363719 0.75592400
0.00451074 -0.50370620 0.75578006
0.00447090 -0.50377521 0.75563612
0.00443105 -0.50384422 0.75549218
0.00439120 -0.50391323 0.75534824
0.00435136 -0.50398224 0.75520430
0.00431151 -0.50405125 0.75506037
0.00427167 -0.50412026 0.75491643
0.00421895 -0.50411451 0.75474077
0.00416536 -0.50410348 0.75456292
0.00412460 -0.50416710 0.75441675
0.00271770 -0.50681166 0.74930282
0.00267785 -0.50688067 0.74915888
0.00263801 -0.50694968 0.74901495
0.00259816 -0.50701869 0.74887101
0.00200048 -0.50805385 0.74671193
0.00196064 -0.50812286 0.74656799
0.00152234 -0.50888197 0.74498467
0.00148249 -0.50895098 0.74484073
0.00144264 -0.50901999 0.74469679
0.00140280 -0.50908900 0.74455285
0.00136295 -0.50915801 0.74440891
0.00132311 -0.50922702 0.74426497
0.00128326 -0.50929603 0.74412104
0.00052620 -0.51060722 0.74138620
0.00048636 -0.51067623 0.74124227
0.00044651 -0.51074524 0.74109833
0.00040666 -0.51081425 0.74095439
0.02336654 -0.47113598 0.82368255
0.02332561 -0.47119999 0.82353567
0.02328353 -0.47125898 0.82338581
0.02324146 -0.47131797 0.82323596
0.02320163 -0.47138696 0.82309207
0.02283889 -0.47223697 0.82174796
0.02279904 -0.47230598 0.82160402
0.02275919 -0.47237499 0.82146008
0.02271935 -0.47244400 0.82131614
0.02267950 -0.47251301 0.82117220
0.02263966 -0.47258202 0.82102827
0.02259981 -0.47265103 0.82088433
0.02255997 -0.47272004 0.82074039
0.02252012 -0.47278906 0.82059645
0.02248028 -0.47285807 0.82045251
0.02244043 -0.47292708 0.82030857
0.02240059 -0.47299609 0.82016463
0.02236074 -0.47306509 0.82002070
0.02232089 -0.47313410 0.81987676
0.02228105 -0.47320311 0.81973282
0.02224120 -0.47327212 0.81958888
0.02220136 -0.47334114 0.81944494
0.02216151 -0.47341015 0.81930100
0.02212167 -0.47347916 0.81915706
0.02208182 -0.47354817 0.81901313
0.02204198 -0.47361718 0.81886919
0.02200213 -0.47368619 0.81872525
0.02196229 -0.47375520 0.81858131
0.02192244 -0.47382421 0.81843737
0.02188259 -0.47389322 0.81829343
0.02184275 -0.47396223 0.81814949
0.02180290 -0.47403124 0.81800555
0.02176306 -0.47410025 0.81786162
0.02172321 -0.47416926 0.81771768
0.02168337 -0.47423827 0.81757374
0.02164352 -0.47430728 0.81742980
0.02160368 -0.47437629 0.81728587
0.02156383 -0.47444530 0.81714192
0.02152399 -0.47451431 0.81699798
0.02148414 -0.47458332 0.81685405
0.02144430 -0.47465233 0.81671011
0.02140445 -0.47472134 0.81656617
0.02136461 -0.47479035 0.81642223
0.02132476 -0.47485936 0.81627830
0.02128491 -0.47492837 0.81613435
0.02124507 -0.47499738 0.81599041
0.02120522 -0.47506639 0.81584648
0.02116538 -0.47513540 0.81570254
0.02112553 -0.47520441 0.81555860
0.02108569 -0.47527342 0.81541466
0.02104584 -0.47534243 0.81527073
0.02100600 -0.47541144 0.81512679
0.02096615 -0.47548045 0.81498284
0.02092630 -0.47554946 0.81483891
0.02088646 -0.47561847 0.81469497
0.02084661 -0.47568748 0.81455103
0.02080677 -0.47575649 0.81440709
0.02076692 -0.47582550 0.81426315
0.02072708 -0.47589451 0.81411922
0.02068723 -0.47596352 0.81397528
0.02064739 -0.47603253 0.81383134
0.02060754 -0.47610154 0.81368740
0.02056770 -0.47617055 0.81354346
0.02052785 -0.47623956 0.81339952
0.02048801 -0.47630857 0.81325558
0.02044816 -0.47637758 0.81311165
0.02040832 -0.47644659 0.81296771
0.02036847 -0.47651560 0.81282377
0.02032862 -0.47658462 0.81267983
0.02028878 -0.47665363 0.81253589
0.02024893 -0.47672264 0.81239195
0.02019714 -0.47673605 0.81221651
0.02015730 -0.47680505 0.81207259
0.02011857 -0.47687913 0.81193153
0.01997002 -0.47720571 0.81138438
0.01993017 -0.47727472 0.81124044
0.01989033 -0.47734373 0.81109651
0.01985048 -0.47741274 0.81095257
0.01981063 -0.47748175 0.81080863
0.01977079 -0.47755076 0.81066469
0.01973094 -0.47761977 0.81052075
0.01969110 -0.47768878 0.81037681
0.01965125 -0.47775779 0.81023287
0.01953172 -0.47796482 0.80980106
0.01949187 -0.47803383 0.80965712
0.01945203 -0.47810284 0.80951318
0.01941218 -0.47817185 0.80936924
0.01937234 -0.47824086 0.80922531
0.01893404 -0.47899997 0.80764198
0.01889419 -0.47906898 0.80749804
0.01885434 -0.47913799 0.80735410
0.01881450 -0.47920700 0.80721016
0.01877465 -0.47927601 0.80706623
0.01873481 -0.47934502 0.80692229
0.01829651 -0.48010413 0.80533896
0.01825666 -0.48017315 0.80519502
0.01821682 -0.48024216 0.80505109
0.01817697 -0.48031117 0.80490715
0.01813713 -0.48038018 0.80476321
0.01809728 -0.48044919 0.80461927
0.01805744 -0.48051820 0.80447533
0.01801759 -0.48058721 0.80433139
0.01797775 -0.48065622 0.80418745
0.01793790 -0.48072523 0.80404352
0.01789805 -0.48079424 0.80389958
0.01785821 -0.48086325 0.80375564
0.01781836 -0.48093226 0.80361170
0.01777852 -0.48100127 0.80346776
0.01773867 -0.48107028 0.80332382
0.01734022 -0.48176038 0.80188444
0.01730037 -0.48182939 0.80174050
0.01726053 -0.48189840 0.80159656
0.01722068 -0.48196741 0.80145262
0.01718084 -0.48203642 0.80130868
0.01714099 -0.48210543 0.80116474
0.01710115 -0.48217444 0.80102081
0.01706130 -0.48224345 0.80087687
0.01702146 -0.48231246 0.80073293
0.01698161 -0.48238147 0.80058899
0.01694177 -0.48245048 0.80044505
0.01690192 -0.48251949 0.80030111
0.01686207 -0.48258850 0.80015717
0.01682223 -0.48265751 0.80001324
0.01638393 -0.48341663 0.79842991
0.01634408 -0.48348564 0.79828597
0.01630424 -0.48355465 0.79814204
0.01626439 -0.48362366 0.79799810
0.01622455 -0.48369267 0.79785416
0.01618470 -0.48376168 0.79771022
0.01506903 -0.48569396 0.79367994
0.01502919 -0.48576297 0.79353600
0.01498934 -0.48583198 0.79339206
0.01471042 -0.48631505 0.79238449
0.01467058 -0.48638406 0.79224055
0.01463073 -0.48645307 0.79209662
0.01459089 -0.48652209 0.79195268
0.01287753 -0.48948952 0.78576332
0.01283769 -0.48955853 0.78561938
0.01279784 -0.48962754 0.78547544
0.01275800 -0.48969655 0.78533151
0.01271815 -0.48976556 0.78518756
0.01267831 -0.48983457 0.78504363
0.01263846 -0.48990358 0.78489969
0.01259862 -0.48997259 0.78475575
0.01255877 -0.49004160 0.78461181
0.01251893 -0.49011062 0.78446787
0.01247908 -0.49017962 0.78432393
0.01235954 -0.49038666 0.78389212
0.00478892 -0.50349859 0.75654379
0.00474907 -0.50356760 0.75639985
0.00470923 -0.50363661 0.75625592
0.00466938 -0.50370563 0.75611198
0.00462954 -0.50377464 0.75596804
0.00458969 -0.50384365 0.75582410
0.00454984 -0.50391266 0.75568016
0.00451000 -0.50398167 0.75553622
0.00447015 -0.50405068 0.75539228
0.00443031 -0.50411969 0.75524835
0.00439046 -0.50418870 0.75510441
0.00435062 -0.50425771 0.75496047
0.00429883 -0.50425733 0.75478709
0.00424428 -0.50424087 0.75460694
0.00419252 -0.50424045 0.75443364
0.00415269 -0.50430943 0.75428977
0.00279665 -0.50694910 0.74934686
0.00275680 -0.50701811 0.74920293
0.00271696 -0.50708713 0.74905899
0.00267711 -0.50715614 0.74891505
0.00156144 -0.50908842 0.74488477
0.00152159 -0.50915743 0.74474083
0.00148175 -0.50922644 0.74459689
0.00144190 -0.50929545 0.74445295
0.00140206 -0.50936446 0.74430902
0.00136221 -0.50943347 0.74416508
0.00132237 -0.50950248 0.74402114
0.00128252 -0.50957149 0.74387720
0.00124268 -0.50964050 0.74373326
0.00120283 -0.50970951 0.74358932
0.00116299 -0.50977852 0.74344538
0.00060515 -0.51074467 0.74143024
0.00056530 -0.51081368 0.74128631
0.00052546 -0.51088269 0.74114237
0.00048561 -0.51095170 0.74099843
0.02344994 -0.47129337 0.82373851
0.02340566 -0.47134241 0.82358269
0.02336582 -0.47141140 0.82343879
0.02332262 -0.47146536 0.82328595
0.02328169 -0.47152937 0.82313908
0.02291783 -0.47237441 0.82179200
0.02287799 -0.47244343 0.82164806
0.02283814 -0.47251244 0.82150412
0.02279830 -0.47258145 0.82136018
0.02275845 -0.47265046 0.82121625
0.02271861 -0.47271947 0.82107231
0.02267876 -0.47278848 0.82092837
0.02263892 -0.47285749 0.82078443
0.02259907 -0.47292650 0.82064049
0.02255922 -0.47299551 0.82049655
0.02251938 -0.47306452 0.82035261
0.02247953 -0.47313353 0.82020867
0.02243969 -0.47320254 0.82006474
0.02239984 -0.47327155 0.81992080
0.02236000 -0.47334056 0.81977686
0.02232015 -0.47340957 0.81963292
0.02228031 -0.47347858 0.81948898
0.02224046 -0.47354759 0.81934504
0.02220062 -0.47361660 0.81920110
0.02216077 -0.47368561 0.81905717
0.02212093 -0.47375462 0.81891323
0.02208108 -0.47382363 0.81876929
0.02204124 -0.47389264 0.81862535
0.02200139 -0.47396165 0.81848142
0.02196154 -0.47403066 0.81833747
0.02192170 -0.47409967 0.81819353
0.02188185 -0.47416868 0.81804960
0.02184201 -0.47423769 0.81790566
0.02180216 -0.47430670 0.81776172
0.02176232 -0.47437571 0.81761778
0.02172247 -0.47444472 0.81747384
0.02168263 -0.47451373 0.81732991
0.02164278 -0.47458274 0.81718596
0.02160294 -0.47465175 0.81704203
0.02156309 -0.47472076 0.81689809
0.02152324 -0.47478977 0.81675415
0.02148340 -0.47485878 0.81661021
0.02144355 -0.47492779 0.81646627
0.02140371 -0.47499680 0.81632234
0.02136386 -0.47506581 0.81617839
0.02132402 -0.47513482 0.81603445
0.02128417 -0.47520383 0.81589052
0.02124433 -0.47527284 0.81574658
0.02120448 -0.47534185 0.81560264
0.02116464 -0.47541086 0.81545870
0.02112479 -0.47547987 0.81531477
0.02108495 -0.47554888 0.81517083
0.02104510 -0.47561790 0.81502688
0.02100525 -0.47568691 0.81488295
0.02096541 -0.47575592 0.81473901
0.02092556 -0.47582493 0.81459507
0.02088572 -0.47589394 0.81445113
0.02084587 -0.47596295 0.81430720
0.02080603 -0.47603196 0.81416326
0.02076618 -0.47610096 0.81401932
0.02072634 -0.47616998 0.81387538
0.02068649 -0.47623899 0.81373144
0.02064665 -0.47630800 0.81358750
0.02060680 -0.47637701 0.81344356
0.02056696 -0.47644602 0.81329963
0.02052711 -0.47651503 0.81315569
0.02048727 -0.47658404 0.81301175
0.02044742 -0.47665305 0.81286781
0.02040757 -0.47672206 0.81272387
0.02036773 -0.47679107 0.81257993
0.02032788 -0.47686008 0.81243599
0.02028804 -0.47692909 0.81229205
0.02024819 -0.47699810 0.81214812
0.02019752 -0.47701658 0.81197557
0.02004896 -0.47734315 0.81142842
0.02000912 -0.47741216 0.81128448
0.01996927 -0.47748117 0.81114055
0.01992943 -0.47755018 0.81099661
0.01988958 -0.47761919 0.81085267
0.01984974 -0.47768820 0.81070873
0.01980989 -0.47775721 0.81056479
0.01977005 -0.47782622 0.81042085
0.01973020 -0.47789523 0.81027691
0.01957082 -0.47817127 0.80970116
0.01953097 -0.47824028 0.80955722
0.01949113 -0.47830929 0.80941328
0.01945128 -0.47837830 0.80926935
0.01897314 -0.47920643 0.80754208
0.01893329 -0.47927544 0.80739814
0.01889345 -0.47934445 0.80725421
0.01885360 -0.47941346 0.80711027
0.01881376 -0.47948247 0.80696633
0.01877391 -0.47955148 0.80682239
0.01833561 -0.48031059 0.80523906
0.01829577 -0.48037960 0.80509513
0.01825592 -0.48044861 0.80495119
0.01821608 -0.48051762 0.80480725
0.01817623 -0.48058663 0.80466331
0.01813639 -0.48065564 0.80451937
0.01809654 -0.48072465 0.80437544
0.01805669 -0.48079366 0.80423149
0.01801685 -0.48086267 0.80408756
0.01797700 -0.48093168 0.80394362
0.01793716 -0.48100069 0.80379968
0.01725979 -0.48217386 0.80135272
0.01721994 -0.48224287 0.80120879
0.01718010 -0.48231188 0.80106485
0.01702071 -0.48258793 0.80048909
0.01698087 -0.48265694 0.80034515
0.01694102 -0.48272595 0.80020122
0.01690118 -0.48279496 0.80005728
0.01686133 -0.48286397 0.79991334
0.01646288 -0.48355407 0.79847395
0.01642303 -0.48362308 0.79833002
0.01638319 -0.48369209 0.79818608
0.01634334 -0.48376110 0.79804214
0.01630350 -0.48383011 0.79789820
0.01626365 -0.48389912 0.79775426
0.01478937 -0.48645250 0.79242853
0.01474953 -0.48652151 0.79228460
0.01470968 -0.48659052 0.79214066
0.01466984 -0.48665953 0.79199672
0.01291664 -0.48969598 0.78566342
0.01287679 -0.48976499 0.78551948
0.01283695 -0.48983400 0.78537555
0.01279710 -0.48990301 0.78523161
0.01275726 -0.48997202 0.78508767
0.01271741 -0.49004103 0.78494373
0.01267757 -0.49011004 0.78479979
0.01263772 -0.49017905 0.78465585
0.01259787 -0.49024806 0.78451191
0.01255803 -0.49031707 0.78436798
0.01243849 -0.49052410 0.78393616
0.01239865 -0.49059311 0.78379222
0.00486787 -0.50363604 0.75658783
0.00482802 -0.50370505 0.75644389
0.00478818 -0.50377406 0.75629996
0.00474833 -0.50384307 0.75615602
0.00470848 -0.50391208 0.75601208
0.00466864 -0.50398109 0.75586814
0.00462879 -0.50405010 0.75572420
0.00458895 -0.50411911 0.75558026
0.00454910 -0.50418812 0.75543632
0.00450926 -0.50425713 0.75529239
0.00446941 -0.50432614 0.75514845
0.00442957 -0.50439515 0.75500451
0.00437869 -0.50440009 0.75483338
0.00432508 -0.50438900 0.75465551
0.00428340 -0.50444730 0.75450709
0.00287560 -0.50708655 0.74939091
0.00283575 -0.50715556 0.74924697
0.00279591 -0.50722457 0.74910303
0.00275606 -0.50729358 0.74895909
0.00160054 -0.50929487 0.74478487
0.00156070 -0.50936388 0.74464093
0.00152085 -0.50943289 0.74449699
0.00148101 -0.50950190 0.74435306
0.00144116 -0.50957091 0.74420912
0.00140132 -0.50963992 0.74406518
0.00136147 -0.50970894 0.74392124
0.00132163 -0.50977795 0.74377730
0.00128178 -0.50984696 0.74363336
0.00124193 -0.50991597 0.74348943
0.00120209 -0.50998498 0.74334549
0.00068410 -0.51088211 0.74147429
0.00064425 -0.51095112 0.74133035
0.00060441 -0.51102013 0.74118641
0.00056456 -0.51108914 0.74104247
0.02353338 -0.47145081 0.82379449
0.02348906 -0.47149980 0.82363865
0.02344698 -0.47155880 0.82348878
0.02340491 -0.47161779 0.82333892
0.02336507 -0.47168678 0.82319502
0.02299681 -0.47251191 0.82183606
0.02295697 -0.47258092 0.82169212
0.02291712 -0.47264993 0.82154818
0.02287728 -0.47271894 0.82140424
0.02283743 -0.47278795 0.82126030
0.02279758 -0.47285696 0.82111636
0.02275774 -0.47292597 0.82097243
0.02271789 -0.47299498 0.82082849
0.02267805 -0.47306399 0.82068454
0.02263820 -0.47313300 0.82054061
0.02259836 -0.47320201 0.82039667
0.02255851 -0.47327102 0.82025273
0.02251867 -0.47334003 0.82010879
0.02247882 -0.47340904 0.81996486
0.02243898 -0.47347805 0.81982092
0.02239913 -0.47354706 0.81967698
0.02235928 -0.47361607 0.81953304
0.02231944 -0.47368508 0.81938910
0.02227959 -0.47375409 0.81924516
0.02223975 -0.47382310 0.81910122
0.02219990 -0.47389211 0.81895729
0.02216006 -0.47396112 0.81881335
0.02212021 -0.47403013 0.81866941
0.02208037 -0.47409914 0.81852547
0.02204052 -0.47416815 0.81838153
0.02200068 -0.47423716 0.81823759
0.02196083 -0.47430617 0.81809365
0.02192099 -0.47437518 0.81794972
0.02188114 -0.47444419 0.81780578
0.02184130 -0.47451320 0.81766184
0.02180145 -0.47458221 0.81751790
0.02176161 -0.47465122 0.81737396
0.02172176 -0.47472024 0.81723002
0.02168191 -0.47478925 0.81708608
0.02164207 -0.47485826 0.81694214
0.02160222 -0.47492727 0.81679821
0.02156238 -0.47499628 0.81665427
0.02152253 -0.47506528 0.81651033
0.02148269 -0.47513429 0.81636639
0.02144284 -0.47520331 0.81622245
0.02140299 -0.47527232 0.81607851
0.02136315 -0.47534133 0.81593457
0.02132330 -0.47541034 0.81579064
