ply
format ascii 1.0
element vertex 1408
property float x
property float y
property float z
end_header
-0.19809281 0.28650385 0.18364694
-0.19807294 0.28716854 0.18391516
-0.19806925 0.28751484 0.18402761
-0.19809063 0.28791695 0.18405321
-0.19830036 0.28873879 0.18342609
-0.19828412 0.28905796 0.18358229
-0.19821760 0.28926488 0.18391263
-0.19820136 0.28958393 0.18406877
-0.19634018 0.32340712 0.20119392
-0.19629924 0.32366299 0.20143338
-0.19628302 0.32398165 0.20158933
-0.19627914 0.32433179 0.20170361
-0.19626292 0.32465049 0.20185958
-0.19624670 0.32496918 0.20201555
-0.19614481 0.32614896 0.20276421
-0.19611626 0.32643587 0.20296171
-0.19606306 0.32665933 0.20324221
-0.19604685 0.32697780 0.20339807
-0.19603064 0.32729627 0.20355393
-0.19603907 0.32767832 0.20362686
-0.19602285 0.32799686 0.20378276
-0.19600664 0.32831540 0.20393865
-0.19599043 0.32863394 0.20409455
-0.19597422 0.32895247 0.20425044
-0.19597033 0.32930299 0.20436490
-0.19596644 0.32965356 0.20447938
-0.19595023 0.32997216 0.20463531
-0.19593401 0.33029076 0.20479123
-0.19591780 0.33060936 0.20494716
-0.19578025 0.33386021 0.20642397
-0.19572713 0.33408152 0.20670354
-0.19569862 0.33436761 0.20690064
-0.19568240 0.33468614 0.20705653
-0.19569079 0.33506977 0.20713011
-0.19567457 0.33538837 0.20728603
-0.19569132 0.33615617 0.20743339
-0.19566279 0.33644219 0.20763051
-0.19563428 0.33672818 0.20782757
-0.19563035 0.33707959 0.20794246
-0.19561413 0.33739828 0.20809843
-0.19559791 0.33771697 0.20825440
-0.19556941 0.33800283 0.20845139
-0.19555319 0.33832149 0.20860735
-0.19553697 0.33864016 0.20876331
-0.19552076 0.33895882 0.20891926
-0.19546771 0.33917861 0.20919809
-0.19543923 0.33946419 0.20939494
-0.19542301 0.33978273 0.20955084
-0.19540680 0.34010127 0.20970673
-0.19540286 0.34045289 0.20982173
-0.19539892 0.34080457 0.20993676
-0.19537043 0.34109003 0.21013355
-0.19535422 0.34140859 0.21028946
-0.19533801 0.34172716 0.21044537
-0.19532179 0.34204573 0.21060128
-0.19530558 0.34236430 0.21075719
-0.19527711 0.34264957 0.21095389
-0.19524865 0.34293480 0.21115050
-0.19523244 0.34325331 0.21130638
-0.19522847 0.34360518 0.21142157
-0.19527351 0.34409087 0.21137383
-0.19583599 0.34599046 0.20960640
-0.19581970 0.34631065 0.20976310
-0.19580340 0.34663083 0.20991980
-0.19578711 0.34695101 0.21007650
-0.20195878 0.16718035 0.13281427
-0.20194279 0.16749453 0.13296803
-0.20192680 0.16780872 0.13312180
-0.20191081 0.16812290 0.13327556
-0.20189482 0.16843708 0.13342932
-0.20189156 0.16876713 0.13353531
-0.20188830 0.16909724 0.13364132
-0.20188503 0.16942741 0.13374737
-0.20188176 0.16975763 0.13385343
-0.20220071 0.17149876 0.13303360
-0.20217187 0.17179779 0.13323582
-0.20215583 0.17211299 0.13339008
-0.20213979 0.17242819 0.13354434
-0.20212375 0.17274339 0.13369860
-0.20210770 0.17305858 0.13385286
-0.20209166 0.17337378 0.13400712
-0.20206284 0.17367260 0.13420923
-0.20204680 0.17398776 0.13436347
-0.20203076 0.17430293 0.13451772
-0.20201472 0.17461810 0.13467197
-0.20394563 0.18017855 0.12831114
-0.19971833 0.17628432 0.14456002
-0.19967784 0.17656166 0.14480398
-0.19957568 0.17675682 0.14527784
-0.19953524 0.17703383 0.14552144
-0.19951947 0.17734365 0.14567307
-0.19950370 0.17765348 0.14582470
-0.19946330 0.17793027 0.14606813
-0.19944753 0.17824004 0.14621973
-0.19944408 0.17856638 0.14632547
-0.19944063 0.17889279 0.14643123
-0.19942486 0.17920262 0.14658286
-0.19943374 0.17954580 0.14664279
-0.19957828 0.18007316 0.14619779
-0.19986848 0.18113188 0.14530441
-0.19985265 0.18144293 0.14545664
-0.19979961 0.18170313 0.14574724
-0.19975900 0.18198016 0.14599157
-0.19973079 0.18227406 0.14618978
-0.19972735 0.18260197 0.14629588
-0.20311658 0.19067968 0.13465897
-0.20310032 0.19099920 0.13481534
-0.20308405 0.19131872 0.13497172
-0.20309391 0.19167503 0.13503124
-0.20311686 0.19204994 0.13504231
-0.20311367 0.19238810 0.13515032
-0.20313663 0.19276337 0.13516144
-0.20312035 0.19308317 0.13531795
-0.20314713 0.19586762 0.13598947
-0.20313084 0.19618780 0.13614617
-0.20311454 0.19650799 0.13630287
-0.20309824 0.19682817 0.13645957
-0.20308195 0.19714836 0.13661627
-0.20306565 0.19746854 0.13677298
-0.20304936 0.19778873 0.13692968
-0.20303306 0.19810891 0.13708638
-0.20277233 0.20323187 0.13959359
-0.20275603 0.20355206 0.13975029
-0.20273974 0.20387225 0.13990699
-0.20254090 0.20391721 0.14073525
-0.20249860 0.20419764 0.14098747
-0.20248233 0.20451731 0.14114393
-0.20246606 0.20483699 0.14130038
-0.19077553 0.19025767 0.18516739
-0.19071750 0.19048245 0.18546852
-0.19068108 0.19074044 0.18569031
-0.19065547 0.19101507 0.18587246
-0.19061909 0.19127291 0.18609409
-0.19049657 0.19139669 0.18663143
-0.19048176 0.19168769 0.18677384
-0.19816841 0.20466574 0.15888266
-0.19810388 0.20489919 0.15921291
-0.19805155 0.20515155 0.15949837
-0.19803579 0.20546126 0.15964995
-0.19804439 0.20580937 0.15971235
-0.19804081 0.20613838 0.15981938
-0.19803722 0.20646744 0.15992644
-0.19803363 0.20679655 0.16003353
-0.19803006 0.20712576 0.16014060
-0.19800209 0.20741627 0.16033682
-0.19799851 0.20774553 0.16044392
-0.19800709 0.20809427 0.16050655
-0.19800350 0.20842368 0.16061372
-0.19798773 0.20873366 0.16076543
-0.19791107 0.20894606 0.16113949
-0.19788314 0.20923635 0.16133555
-0.19786737 0.20954615 0.16148717
-0.19785160 0.20985595 0.16163878
-0.19783583 0.21016574 0.16179040
-0.19780791 0.21045589 0.16198638
-0.19779214 0.21076566 0.16213799
-0.19777638 0.21107543 0.16228959
-0.19778492 0.21142467 0.16235254
-0.19776915 0.21173450 0.16250418
-0.19775338 0.21204433 0.16265581
-0.19772546 0.21233433 0.16285172
-0.19770970 0.21264413 0.16300334
-0.19770608 0.21297381 0.16311070
-0.20147309 0.22572492 0.15123548
-0.20143099 0.22600109 0.15148569
-0.20137598 0.22625529 0.15178263
-0.20134681 0.22655309 0.15198587
-0.20133054 0.22687273 0.15214231
-0.19962477 0.24887538 0.16531431
-0.19960857 0.24919370 0.16547009
-0.19960503 0.24953606 0.16558067
-0.19958883 0.24985441 0.16573647
-0.19958530 0.25019689 0.16584705
-0.19956910 0.25051527 0.16600287
-0.19954022 0.25080945 0.16620388
-0.19949869 0.25107937 0.16644999
-0.19946984 0.25137342 0.16665087
-0.19945364 0.25169168 0.16680663
-0.19941216 0.25196137 0.16705250
-0.19938331 0.25225523 0.16725329
-0.19936712 0.25257339 0.16740900
-0.19935093 0.25289155 0.16756471
-0.19933474 0.25320971 0.16772042
-0.19933119 0.25355232 0.16783112
-0.19932762 0.25389497 0.16794191
-0.19933670 0.25426222 0.16800770
-0.19932050 0.25458051 0.16816347
-0.19932959 0.25494797 0.16822930
-0.19901283 0.26308446 0.17181202
-0.19898399 0.26337758 0.17201258
-0.19896778 0.26369611 0.17216847
-0.19892636 0.26396367 0.17241349
-0.19891015 0.26428214 0.17256935
-0.19931527 0.26757139 0.17183046
-0.19929899 0.26789116 0.17198696
-0.19847941 0.27465916 0.17724835
-0.19843807 0.27492468 0.17749250
-0.19842185 0.27524331 0.17764844
-0.19839307 0.27553529 0.17784844
-0.19835172 0.27580052 0.17809244
-0.19832297 0.27609237 0.17829232
-0.19830676 0.27641088 0.17844820
-0.19831565 0.27678291 0.17851613
-0.19829944 0.27710148 0.17867204
-0.19820797 0.27725914 0.17909149
-0.19819177 0.27757752 0.17924731
-0.19822571 0.27800340 0.17922759
-0.19820950 0.27832191 0.17938347
-0.19818076 0.27861347 0.17958320
-0.19816455 0.27893195 0.17973906
-0.19814834 0.27925042 0.17989493
-0.19814466 0.27959593 0.18000698
-0.19812845 0.27991443 0.18016286
-0.19812626 0.28132453 0.18056753
-0.19811005 0.28164319 0.18072348
-0.19806877 0.28190729 0.18096693
-0.19805255 0.28222589 0.18112286
-0.19802381 0.28251714 0.18132250
-0.19800759 0.28283571 0.18147841
-0.19799138 0.28315428 0.18163432
-0.19797517 0.28347285 0.18179023
-0.19794643 0.28376395 0.18198980
-0.19793021 0.28408248 0.18214569
-0.19796408 0.28451116 0.18212708
-0.19782417 0.28561990 0.18301219
-0.19775797 0.28582773 0.18334205
-0.19779175 0.28625685 0.18332392
-0.19776303 0.28654757 0.18352330
-0.19774312 0.28721227 0.18379151
-0.19773940 0.28755857 0.18390395
-0.19772319 0.28787707 0.18405983
-0.19774446 0.28827929 0.18408544
-0.19776573 0.28868174 0.18411108
-0.19777454 0.28905644 0.18418014
-0.19773329 0.28931912 0.18442302
-0.19770459 0.28960978 0.18462238
-0.19768837 0.28992844 0.18477833
-0.19767215 0.29024710 0.18493429
-0.19761847 0.29048136 0.18522024
-0.19756483 0.29071549 0.18550601
-0.19748628 0.29089316 0.18587808
-0.19747008 0.29121148 0.18603387
-0.19752867 0.29169914 0.18593037
-0.19753740 0.29207420 0.18599979
-0.19752119 0.29239277 0.18615570
-0.19750498 0.29271134 0.18631161
-0.19597701 0.32300671 0.20108126
-0.19593615 0.32326254 0.20132067
-0.19591994 0.32358108 0.20147656
-0.19590372 0.32389962 0.20163246
-0.19588751 0.32421816 0.20178835
-0.19587130 0.32453669 0.20194424
-0.19585509 0.32485523 0.20210014
-0.19583888 0.32517377 0.20225603
-0.19583498 0.32552390 0.20237029
-0.19581877 0.32584248 0.20252620
-0.19580256 0.32616104 0.20268211
-0.19578634 0.32647961 0.20283802
-0.19573324 0.32670305 0.20311855
-0.19571704 0.32702153 0.20327442
-0.19570083 0.32734000 0.20343028
-0.19570918 0.32772206 0.20350319
-0.19569297 0.32804060 0.20365908
-0.19567676 0.32835914 0.20381497
-0.19566054 0.32867768 0.20397087
-0.19564433 0.32899621 0.20412676
-0.19564042 0.32934673 0.20424121
-0.19563650 0.32969731 0.20435568
-0.19562028 0.33001591 0.20451161
-0.19560407 0.33033451 0.20466753
-0.19557557 0.33062100 0.20486485
-0.19555935 0.33093957 0.20502076
-0.19555542 0.33129031 0.20513531
-0.19553921 0.33160891 0.20529123
-0.19551071 0.33189528 0.20548848
-0.19549450 0.33221384 0.20564439
-0.19547828 0.33253241 0.20580030
-0.19543754 0.33278635 0.20603872
-0.19542133 0.33310486 0.20619460
-0.19540512 0.33342337 0.20635048
-0.19540115 0.33377426 0.20646517
-0.19538494 0.33409280 0.20662107
-0.19536873 0.33441134 0.20677696
-0.19535252 0.33472988 0.20693286
-0.19536084 0.33511352 0.20700641
-0.19534462 0.33543212 0.20716233
-0.19532841 0.33575072 0.20731826
-0.19531219 0.33606932 0.20747418
-0.19529598 0.33638792 0.20763011
-0.19526751 0.33667381 0.20782713
-0.19525130 0.33699237 0.20798304
-0.19523508 0.33731094 0.20813894
-0.19521887 0.33762951 0.20829486
-0.19519040 0.33791525 0.20849180
-0.19516196 0.33820095 0.20868866
-0.19514575 0.33851945 0.20884454
-0.19512954 0.33883796 0.20900042
-0.19512555 0.33918940 0.20911537
-0.19510934 0.33950793 0.20927127
-0.19509313 0.33982647 0.20942716
-0.19507692 0.34014501 0.20958306
-0.19507295 0.34049663 0.20969804
-0.19506897 0.34084832 0.20981306
-0.19504052 0.34113377 0.21000986
-0.19502431 0.34145234 0.21016577
-0.19500809 0.34177090 0.21032168
-0.19499188 0.34208948 0.21047759
-0.19497567 0.34240804 0.21063350
-0.19494722 0.34269331 0.21083021
-0.19491881 0.34297853 0.21102684
-0.19490260 0.34329704 0.21118272
-0.19489858 0.34364892 0.21129789
-0.19494346 0.34413463 0.21125009
-0.19550440 0.34603443 0.20948208
-0.19548811 0.34635461 0.20963878
-0.19547181 0.34667479 0.20979548
-0.19545552 0.34699498 0.20995218
-0.19727392 0.15443107 0.14703965
-0.19725851 0.15473386 0.14718784
-0.19723127 0.15502268 0.14738078
-0.20163340 0.16722349 0.13269229
-0.20161741 0.16753767 0.13284605
-0.20160142 0.16785186 0.13299982
-0.20158543 0.16816604 0.13315358
-0.20159485 0.16851190 0.13321173
-0.20157885 0.16882614 0.13336552
-0.20156286 0.16914039 0.13351931
-0.20155957 0.16947056 0.13362534
-0.20155626 0.16980079 0.13373140
-0.20186149 0.17152587 0.13295918
-0.20183269 0.17182486 0.13316139
-0.20182941 0.17215627 0.13326770
-0.20181336 0.17247147 0.13342196
-0.20179732 0.17278667 0.13357622
-0.20178128 0.17310186 0.13373048
-0.20175249 0.17340070 0.13393262
-0.20173645 0.17371587 0.13408686
-0.20172041 0.17403104 0.13424111
-0.20169161 0.17432976 0.13444318
-0.20168833 0.17466138 0.13454960
-0.20349901 0.17972982 0.12852193
-0.20345649 0.18001515 0.12877672
-0.19939713 0.17632691 0.14443960
-0.19935669 0.17660423 0.14468358
-0.19925475 0.17679937 0.14515752
-0.19923898 0.17710926 0.14530918
-0.19919861 0.17738619 0.14555278
-0.19918285 0.17769602 0.14570441
-0.19916708 0.17800585 0.14585604
-0.19915131 0.17831567 0.14600767
-0.19913554 0.17862550 0.14615930
-0.19911977 0.17893533 0.14631093
-0.19911628 0.17926180 0.14641671
-0.19911281 0.17958835 0.14652247
-0.19954634 0.18117459 0.14518364
-0.19953051 0.18148564 0.14533587
-0.19951468 0.18179670 0.14548810
-0.19946174 0.18205679 0.14577869
-0.19942120 0.18233375 0.14602301
-0.19943009 0.18267872 0.14608307
-0.20275639 0.19102473 0.13473975
-0.20274013 0.19134422 0.13489611
-0.20272387 0.19166371 0.13505247
-0.20269457 0.19196476 0.13525724
-0.20273042 0.19235807 0.13521997
-0.20275326 0.19273319 0.13523110
-0.20281554 0.19591158 0.13586516
-0.20279925 0.19623177 0.13602186
-0.20278295 0.19655195 0.13617856
-0.20276666 0.19687214 0.13633526
-0.20275036 0.19719232 0.13649196
-0.20273406 0.19751251 0.13664866
-0.20271777 0.19783269 0.13680536
-0.20242444 0.20359602 0.13962597
-0.20227804 0.20371983 0.14026280
-0.20220978 0.20396111 0.14061110
-0.20216754 0.20424153 0.14086336
-0.20213829 0.20454151 0.14106767
-0.20213500 0.20488088 0.14117626
-0.19042649 0.19053913 0.18531578
-0.19039013 0.19079715 0.18553761
-0.19036454 0.19107179 0.18571978
-0.19033895 0.19134638 0.18590193
-0.19030263 0.19160417 0.18612354
-0.19784746 0.20470830 0.15876233
-0.19778305 0.20494172 0.15909263
-0.19773081 0.20519408 0.15937812
-0.19769078 0.20546548 0.15961882
-0.19767502 0.20577513 0.15977036
-0.19770783 0.20616168 0.15974368
-0.19771636 0.20650998 0.15980615
-0.19772490 0.20685842 0.15986862
-0.19773343 0.20720698 0.15993114
-0.19771766 0.20751693 0.16008283
-0.19770188 0.20782688 0.16023452
-0.19769826 0.20815627 0.16034166
-0.19774329 0.20856363 0.16027059
-0.19772750 0.20887376 0.16042237
-0.19769955 0.20916433 0.16061870
-0.19767160 0.20945485 0.16081501
-0.19764367 0.20974533 0.16101124
-0.19762789 0.21005536 0.16116297
-0.19761212 0.21036540 0.16131470
-0.19751137 0.21053773 0.16177736
-0.19749560 0.21084756 0.16192899
-0.19747983 0.21115739 0.16208062
-0.19746406 0.21146722 0.16223225
-0.19744829 0.21177704 0.16238388
-0.19744464 0.21210668 0.16249121
-0.19742887 0.21241653 0.16264285
-0.19740099 0.21270653 0.16283878
-0.19753082 0.21325541 0.16245852
-0.19755148 0.21362553 0.16247721
-0.19751990 0.21424608 0.16278091
-0.20108355 0.22636477 0.15151803
-0.20106728 0.22668454 0.15167453
-0.19929512 0.24891909 0.16519072
-0.19927892 0.24923741 0.16534650
-0.19926272 0.24955572 0.16550229
-0.19923387 0.24984993 0.16570333
-0.19921767 0.25016822 0.16585910
-0.19920147 0.25048651 0.16601487
-0.19917264 0.25078062 0.16621580
-0.19914383 0.25107467 0.16641669
-0.19911503 0.25136868 0.16661751
-0.19908621 0.25166260 0.16681834
-0.19907001 0.25198076 0.16697405
-0.19904122 0.25227462 0.16717479
-0.19899981 0.25254405 0.16742056
-0.19899622 0.25288648 0.16753122
-0.19900524 0.25325340 0.16759689
-0.19898905 0.25357156 0.16775260
-0.19898547 0.25391420 0.16786331
-0.19898187 0.25425689 0.16797409
-0.19896567 0.25457511 0.16812983
-0.19894947 0.25489333 0.16828557
-0.19893328 0.25521155 0.16844131
-0.19868653 0.26278424 0.17157711
-0.19864517 0.26305198 0.17182225
-0.19861636 0.26334500 0.17202277
-0.19861275 0.26368892 0.17213398
-0.19857137 0.26395639 0.17237904
-0.19851749 0.26419828 0.17266845
-0.19848871 0.26449105 0.17286878
-0.19845995 0.26478377 0.17306903
-0.19810808 0.27496843 0.17736878
-0.19804175 0.27518059 0.17770102
-0.19801303 0.27547247 0.17790092
-0.19795927 0.27571096 0.17818879
-0.19790554 0.27594931 0.17847653
-0.19787684 0.27624090 0.17867623
-0.19784815 0.27653243 0.17887589
-0.19784445 0.27687741 0.17898774
-0.19782825 0.27719566 0.17914349
-0.19781205 0.27751392 0.17929925
-0.19779586 0.27783217 0.17945500
-0.19779215 0.27817730 0.17956693
-0.19777595 0.27849559 0.17972270
-0.19775975 0.27881387 0.17987847
-0.19780601 0.27926712 0.17981516
-0.19781481 0.27963967 0.17988332
-0.19779860 0.27995817 0.18003920
-0.19773882 0.28195104 0.18084323
-0.19766015 0.28213310 0.18121779
-0.19764394 0.28245155 0.18137364
-0.19760279 0.28271531 0.18161677
-0.19761152 0.28308843 0.18168534
-0.19759532 0.28340687 0.18184118
-0.19757911 0.28372532 0.18199703
-0.19750057 0.28390643 0.18237080
-0.19748437 0.28422472 0.18252657
-0.19743082 0.28446050 0.18281286
-0.19740217 0.28475116 0.18301210
-0.19738597 0.28506932 0.18316780
-0.19739467 0.28544265 0.18323661
-0.19739092 0.28578851 0.18334889
-0.19737472 0.28610676 0.18350464
-0.19738344 0.28648044 0.18357349
-0.19736724 0.28679875 0.18372927
-0.19735104 0.28711707 0.18388506
-0.19734727 0.28746318 0.18399746
-0.19736842 0.28786507 0.18402305
-0.19737713 0.28823931 0.18409204
-0.19739830 0.28864164 0.18411766
-0.19739455 0.28898822 0.18423016
-0.19737833 0.28930685 0.18438610
-0.19736211 0.28962549 0.18454204
-0.19732098 0.28988796 0.18478473
-0.19729231 0.29017843 0.18498401
-0.19725122 0.29044074 0.18522649
-0.19717283 0.29061855 0.18559871
-0.19714419 0.29090870 0.18579776
-0.19711556 0.29119882 0.18599673
-0.19711179 0.29154527 0.18610930
-0.19715772 0.29200482 0.18604908
-0.19716640 0.29237989 0.18611847
-0.19717505 0.29275508 0.18618792
-0.19715884 0.29307365 0.18634383
-0.19715507 0.29342064 0.18645653
-0.19716373 0.29379615 0.18652608
-0.19712264 0.29405784 0.18676838
-0.19710643 0.29437644 0.18692431
-0.19711508 0.29475214 0.18699394
-0.19566328 0.32273185 0.20080163
-0.19559793 0.32292509 0.20112454
-0.19556943 0.32321219 0.20132216
-0.19555322 0.32353063 0.20147801
-0.19550021 0.32375486 0.20175884
-0.19552081 0.32416752 0.20178971
-0.19550460 0.32448596 0.20194555
-0.19548839 0.32480440 0.20210140
-0.19543540 0.32502825 0.20238205
-0.19540695 0.32531506 0.20257940
-0.19541526 0.32569655 0.20265206
-0.19542356 0.32607817 0.20272479
-0.19540736 0.32639661 0.20288064
-0.19539115 0.32671505 0.20303649
-0.19537494 0.32703350 0.20319234
-0.19535874 0.32735194 0.20334819
-0.19534253 0.32767038 0.20350403
-0.19531407 0.32795700 0.20370136
-0.19529786 0.32827541 0.20385719
-0.19528165 0.32859382 0.20401302
-0.19521649 0.32878463 0.20433448
-0.19521255 0.32913485 0.20444883
-0.19524529 0.32958104 0.20443912
-0.19522908 0.32989948 0.20459497
-0.19521287 0.33021793 0.20475082
-0.19517220 0.33047224 0.20498932
-0.19518046 0.33085480 0.20506251
-0.19516425 0.33117325 0.20521836
-0.19514804 0.33149169 0.20537421
-0.19513184 0.33181014 0.20553006
-0.19511563 0.33212858 0.20568590
-0.19509942 0.33244702 0.20584175
-0.19508321 0.33276546 0.20599760
-0.19504257 0.33301928 0.20623585
-0.19502637 0.33333766 0.20639167
-0.19501016 0.33365604 0.20654749
-0.19498174 0.33394200 0.20674449
-0.19496554 0.33426034 0.20690029
-0.19497375 0.33464363 0.20697384
-0.19498200 0.33502711 0.20704735
-0.19496579 0.33534558 0.20720321
-0.19496179 0.33569664 0.20731797
-0.19494558 0.33601515 0.20747385
-0.19492937 0.33633365 0.20762972
-0.19488873 0.33658677 0.20786777
-0.19487252 0.33690521 0.20802362
-0.19485632 0.33722366 0.20817947
-0.19484011 0.33754210 0.20833532
-0.19482390 0.33786054 0.20849116
-0.19477111 0.33808052 0.20876991
-0.19474273 0.33836603 0.20896663
-0.19477528 0.33881587 0.20895871
-0.19475907 0.33913431 0.20911455
-0.19474287 0.33945275 0.20927040
-0.19469010 0.33967225 0.20954892
-0.19468608 0.34002362 0.20966383
-0.19466988 0.34034200 0.20981964
-0.19467804 0.34072652 0.20989379
-0.19466183 0.34104497 0.21004964
-0.19464562 0.34136341 0.21020549
-0.19459288 0.34158234 0.21048373
-0.19461321 0.34200030 0.21051719
-0.19459700 0.34231874 0.21067303
-0.19458079 0.34263718 0.21082888
-0.19451592 0.34282247 0.21114764
-0.19449971 0.34314078 0.21130342
-0.19448351 0.34345910 0.21145921
-0.19455249 0.34401119 0.21133011
-0.19517281 0.34607839 0.20935777
-0.19515652 0.34639857 0.20951447
-0.19514022 0.34671876 0.20967117
-0.19512393 0.34703894 0.20982787
-0.19697214 0.15448658 0.14687729
-0.19694492 0.15477544 0.14707027
-0.19691771 0.15506425 0.14726322
-0.20130803 0.16726663 0.13257030
-0.20129204 0.16758082 0.13272406
-0.20127604 0.16789500 0.13287783
-0.20129807 0.16825661 0.13288808
-0.20129474 0.16858672 0.13299407
-0.20127875 0.16890103 0.13314790
-0.20125008 0.16919944 0.13334951
-0.20124675 0.16952964 0.13345554
-0.20123076 0.16984395 0.13360937
-0.20137965 0.17036650 0.13314145
-0.20152564 0.17122166 0.13277853
-0.20152233 0.17155298 0.13288478
-0.20150629 0.17186814 0.13303902
-0.20149025 0.17218331 0.13319327
-0.20147421 0.17249848 0.13334752
-0.20145817 0.17281365 0.13350176
-0.20144213 0.17312882 0.13365601
-0.20142609 0.17344398 0.13381025
-0.20138461 0.17372636 0.13406024
-0.20136857 0.17404146 0.13421445
-0.20136525 0.17437303 0.13432083
-0.20312499 0.17869421 0.12827225
-0.20312180 0.17903101 0.12837956
-0.20313168 0.17938506 0.12843780
-0.20312850 0.17972204 0.12854513
-0.20312529 0.18005907 0.12865255
-0.20313519 0.18041347 0.12871083
-0.19907592 0.17636949 0.14431918
-0.19903555 0.17664681 0.14456318
-0.19893383 0.17684192 0.14503720
-0.19891805 0.17715181 0.14518886
-0.19889001 0.17744520 0.14538653
-0.19886198 0.17773856 0.14558411
-0.19884621 0.17804839 0.14573575
-0.19883044 0.17835822 0.14588738
-0.19881467 0.17866805 0.14603901
-0.19879891 0.17897787 0.14619064
-0.19880765 0.17932102 0.14625049
-0.19928596 0.18130186 0.14483185
-0.19922072 0.18154529 0.14516892
-0.19920489 0.18185638 0.14532117
-0.19918906 0.18216746 0.14547342
-0.19917323 0.18247855 0.14562567
-0.20242552 0.19106860 0.13461571
-0.20239626 0.19136971 0.13482053
-0.20234104 0.19163399 0.13512210
-0.20231181 0.19193493 0.13532678
-0.20226962 0.19221739 0.13557973
-0.20233123 0.19264753 0.13544590
-0.20250025 0.19563536 0.13558414
-0.20248395 0.19595555 0.13574084
-0.20246766 0.19627573 0.13589754
-0.20245136 0.19659592 0.13605424
-0.20243507 0.19691610 0.13621094
-0.20241877 0.19723629 0.13636764
-0.20240247 0.19755647 0.13652434
-0.20238618 0.19787666 0.13668104
-0.20209285 0.20363999 0.13950166
-0.20190789 0.20370491 0.14028250
-0.20186570 0.20398538 0.14053488
-0.20183648 0.20428543 0.14073924
-0.20182021 0.20460510 0.14089569
-0.20180394 0.20492478 0.14105214
-0.19015693 0.19062922 0.18508369
-0.19010986 0.19087057 0.18534526
-0.19009503 0.19116199 0.18548788
-0.19008019 0.19145341 0.18563050
-0.19006536 0.19174484 0.18577313
-0.19752650 0.20475085 0.15864200
-0.19745009 0.20496514 0.15901700
-0.19738586 0.20519835 0.15934705
-0.19730956 0.20541220 0.15972144
-0.19735434 0.20581764 0.15965014
-0.19738703 0.20620421 0.15962341
-0.19741974 0.20659109 0.15959664
-0.19747674 0.20701689 0.15948064
-0.19749739 0.20738509 0.15949841
-0.19750589 0.20773406 0.15956092
-0.19749010 0.20804428 0.15971274
-0.19747431 0.20835449 0.15986456
-0.19745852 0.20866471 0.16001638
-0.19740633 0.20891634 0.16030196
-0.19737841 0.20920691 0.16049831
-0.19735049 0.20949742 0.16069462
-0.19732259 0.20978790 0.16089086
-0.19730682 0.21009793 0.16104259
-0.19731528 0.21044730 0.16110536
-0.19729950 0.21075739 0.16125712
-0.19728371 0.21106749 0.16140888
-0.19728005 0.21139735 0.16151618
-0.19730064 0.21176687 0.16153460
-0.19728485 0.21207708 0.16168642
-0.19726906 0.21238730 0.16183824
-0.19725327 0.21269751 0.16199006
-0.19723748 0.21300773 0.16214188
-0.19725805 0.21337780 0.16216051
-0.19725438 0.21370811 0.16226796
-0.19725072 0.21403847 0.16237543
-0.19719857 0.21428869 0.16266044
-0.19719488 0.21461902 0.16276797
-0.19892045 0.24957535 0.16542398
-0.19890425 0.24989364 0.16557975
-0.19887545 0.25018781 0.16578072
-0.19885925 0.25050606 0.16593648
-0.19883046 0.25080014 0.16613740
-0.19880169 0.25109418 0.16633824
-0.19877291 0.25138813 0.16653910
-0.19875672 0.25170629 0.16669481
-0.19872796 0.25200017 0.16689558
-0.19868660 0.25226966 0.16714140
-0.19865784 0.25256339 0.16734209
-0.19864166 0.25288142 0.16749774
-0.19865060 0.25324826 0.16756340
-0.19865956 0.25361524 0.16762907
-0.19864337 0.25393340 0.16778478
-0.19862717 0.25425156 0.16794049
-0.19862356 0.25459428 0.16805121
-0.19861991 0.25493703 0.16816202
-0.19860372 0.25525525 0.16831776
-0.19833156 0.26277723 0.17154274
-0.19830278 0.26307028 0.17174328
-0.19827403 0.26336329 0.17194375
-0.19827037 0.26370716 0.17205498
-0.19824162 0.26400011 0.17225541
-0.19818783 0.26424199 0.17254486
-0.19815909 0.26453475 0.17274521
-0.19811784 0.26480191 0.17298996
-0.19808915 0.26509457 0.17319012
-0.19806043 0.26538713 0.17339031
-0.19805676 0.26573095 0.17350157
-0.19771190 0.27522432 0.17757735
-0.19765822 0.27546291 0.17786538
-0.19759212 0.27567473 0.17819718
-0.19755099 0.27593968 0.17844085
-0.19753479 0.27625791 0.17859659
-0.19750615 0.27654943 0.17879621
-0.19748996 0.27686762 0.17895193
-0.19746130 0.27715902 0.17915155
-0.19744511 0.27747718 0.17930726
-0.19744137 0.27782219 0.17941910
-0.19745007 0.27819412 0.17948719
-0.19743387 0.27851238 0.17964295
-0.19741768 0.27883063 0.17979870
-0.19741393 0.27917586 0.17991066
-0.19733036 0.28217683 0.18109415
-0.19727682 0.28241333 0.18138103
-0.19726062 0.28273168 0.18153683
-0.19724441 0.28305002 0.18169263
-0.19721579 0.28334098 0.18189203
-0.19718714 0.28363185 0.18209145
-0.19713368 0.28386781 0.18237787
-0.19710506 0.28415852 0.18257715
-0.19708887 0.28447668 0.18273286
-0.19706027 0.28476733 0.18293204
-0.19703165 0.28505788 0.18313124
-0.19702789 0.28540358 0.18324343
-0.19704891 0.28580457 0.18326879
-0.19704513 0.28615046 0.18338108
-0.19702894 0.28646871 0.18353683
-0.19702515 0.28681470 0.18364916
-0.19702138 0.28716078 0.18376147
-0.19701758 0.28750690 0.18387386
-0.19701381 0.28785310 0.18398623
-0.19703486 0.28825516 0.18401180
-0.19704348 0.28862948 0.18408086
-0.19702727 0.28894802 0.18423675
-0.19702349 0.28929457 0.18434923
-0.19699485 0.28958509 0.18454854
-0.19697863 0.28990363 0.18470443
-0.19692518 0.29013789 0.18499035
-0.19687176 0.29037203 0.18527607
-0.19684317 0.29066226 0.18547512
-0.19680217 0.29092426 0.18571741
-0.19678597 0.29124252 0.18587316
-0.19678217 0.29158898 0.18598572
-0.19681553 0.29202028 0.18596866
-0.19683654 0.29242362 0.18599480
-0.19682033 0.29274213 0.18615068
-0.19681651 0.29308900 0.18626337
-0.19681271 0.29343596 0.18637605
-0.19680891 0.29378299 0.18648876
-0.19679269 0.29410159 0.18664468
-0.19677648 0.29442019 0.18680061
-0.19676026 0.29473879 0.18695653
-0.19528432 0.32265035 0.20084503
-0.19519465 0.32278091 0.20125125
-0.19517846 0.32309919 0.20140703
-0.19515003 0.32338613 0.20160445
-0.19513383 0.32370438 0.20176021
-0.19514210 0.32408549 0.20183266
-0.19512590 0.32440381 0.20198845
-0.19510970 0.32472213 0.20214423
-0.19508126 0.32500890 0.20234165
-0.19506506 0.32532719 0.20249742
-0.19506110 0.32567708 0.20261159
-0.19504489 0.32599540 0.20276738
-0.19501646 0.32628205 0.20296473
-0.19500027 0.32660033 0.20312051
-0.19498407 0.32691862 0.20327628
-0.19496787 0.32723690 0.20343205
-0.19496389 0.32758698 0.20354631
-0.19494769 0.32790529 0.20370210
-0.19493149 0.32822361 0.20385788
-0.19489087 0.32847819 0.20409654
-0.19487467 0.32879644 0.20425229
-0.19485847 0.32911469 0.20440805
-0.19486669 0.32949688 0.20448103
-0.19486268 0.32984718 0.20459547
-0.19484647 0.33016553 0.20475127
-0.19483027 0.33048388 0.20490707
-0.19481407 0.33080223 0.20506287
-0.19481008 0.33115272 0.20517734
-0.19478167 0.33143892 0.20537447
-0.19476546 0.33175727 0.20553028
-0.19473708 0.33204341 0.20572732
-0.19472088 0.33236173 0.20588310
-0.19469248 0.33264775 0.20608015
-0.19467628 0.33296603 0.20623592
-0.19464790 0.33325199 0.20643287
-0.19464389 0.33360260 0.20654746
-0.19461551 0.33388849 0.20674438
-0.19461149 0.33423917 0.20685900
-0.19459529 0.33455746 0.20701477
-0.19460344 0.33494075 0.20708829
-0.19458724 0.33525910 0.20724409
-0.19457103 0.33557745 0.20739989
-0.19455483 0.33589579 0.20755570
-0.19457515 0.33631205 0.20758828
-0.19451027 0.33649984 0.20790832
-0.19449407 0.33681816 0.20806411
-0.19447787 0.33713647 0.20821989
-0.19447382 0.33748754 0.20833471
-0.19444547 0.33777311 0.20853147
-0.19442927 0.33809142 0.20868725
-0.19440090 0.33837688 0.20888402
-0.19438470 0.33869516 0.20903979
-0.19436850 0.33901345 0.20919556
-0.19435230 0.33933173 0.20935134
-0.19433610 0.33965002 0.20950711
-0.19430776 0.33993531 0.20970373
-0.19429156 0.34025357 0.20985949
-0.19431180 0.34067101 0.20989272
-0.19429560 0.34098936 0.21004852
-0.19426726 0.34127459 0.21024512
-0.19425106 0.34159290 0.21040090
-0.19423486 0.34191122 0.21055669
-0.19421866 0.34222953 0.21071247
-0.19420246 0.34254785 0.21086826
-0.19417411 0.34283287 0.21106481
-0.19415791 0.34315115 0.21122058
-0.19414171 0.34346944 0.21137636
-0.19413766 0.34382112 0.21149140
-0.19484122 0.34612235 0.20923345
-0.19482493 0.34644254 0.20939015
-0.19480863 0.34676272 0.20954685
-0.19479234 0.34708291 0.20970355
-0.19667030 0.15454210 0.14671492
-0.19663134 0.15481702 0.14695270
-0.19661593 0.15511982 0.14710090
-0.19660052 0.15542262 0.14724909
-0.20097001 0.16729405 0.13249621
-0.20095402 0.16760820 0.13264995
-0.20098860 0.16798549 0.13261226
-0.20098524 0.16831557 0.13271822
-0.20100719 0.16867744 0.13272843
-0.20099119 0.16899185 0.13288230
-0.20094988 0.16927439 0.13313188
-0.20093388 0.16958873 0.13328572
-0.20091789 0.16990306 0.13343956
-0.20105374 0.17040972 0.13301926
-0.20119928 0.17126493 0.13265617
-0.20118324 0.17158007 0.13281040
-0.20116720 0.17189520 0.13296463
-0.20115116 0.17221034 0.13311886
-0.20112243 0.17250920 0.13332104
-0.20113177 0.17285692 0.13337939
-0.20111573 0.17317209 0.13353364
-0.20107432 0.17345452 0.13378368
-0.20105828 0.17376963 0.13393790
-0.20104224 0.17408473 0.13409211
-0.20289176 0.17818416 0.12758930
-0.20283633 0.17845265 0.12789337
-0.20279396 0.17873810 0.12814814
-0.20279074 0.17907490 0.12825544
-0.20280055 0.17942897 0.12831365
-0.20281037 0.17978317 0.12837187
-0.20279410 0.18010298 0.12852838
-0.20293456 0.18063063 0.12809489
-0.19874246 0.17639569 0.14424489
-0.19870214 0.17667297 0.14448890
-0.19861291 0.17688447 0.14491689
-0.19858489 0.17717789 0.14511458
-0.19855688 0.17747128 0.14531219
-0.19854112 0.17778111 0.14546382
-0.19852535 0.17809093 0.14561545
-0.19849736 0.17838420 0.14581300
-0.19849381 0.17871059 0.14591871
-0.19847804 0.17902042 0.14607034
-0.19902533 0.18142924 0.14447973
-0.19896015 0.18167273 0.14481714
-0.19894431 0.18198397 0.14496946
-0.19894079 0.18231222 0.14507557
-0.20209465 0.19111247 0.13449166
-0.20202656 0.19135848 0.13484181
-0.20198440 0.19164106 0.13509492
-0.20194227 0.19192354 0.13534791
-0.20190017 0.19220591 0.13560079
-0.20188393 0.19252508 0.13575699
-0.20220125 0.19503896 0.13514642
-0.20218496 0.19535914 0.13530312
-0.20216866 0.19567933 0.13545982
-0.20215236 0.19599951 0.13561652
-0.20213607 0.19631970 0.13577322
-0.20211977 0.19663988 0.13592993
-0.20210348 0.19696007 0.13608663
-0.20208718 0.19728025 0.13624333
-0.20207089 0.19760044 0.13640003
-0.20205459 0.19792062 0.13655673
-0.20158965 0.20376842 0.14011040
-0.20154752 0.20404892 0.14036282
-0.20151833 0.20434899 0.14056721
-0.20150206 0.20466870 0.14072368
-0.20156332 0.20510690 0.14059266
-0.20166349 0.20560506 0.14031754
-0.18982949 0.19094402 0.18515284
-0.18980394 0.19121875 0.18533511
-0.18979982 0.19152697 0.18543814
-0.19716557 0.20506505 0.15876273
-0.19706518 0.20524087 0.15922682
-0.19698904 0.20545470 0.15960127
-0.19704574 0.20587935 0.15948534
-0.19728528 0.20760225 0.15897564
-0.19726948 0.20791267 0.15912756
-0.19726581 0.20824256 0.15923479
-0.19728642 0.20861157 0.15925254
-0.19727062 0.20892212 0.15940452
-0.19718203 0.20911524 0.15982461
-0.19716624 0.20942561 0.15997651
-0.19716256 0.20975559 0.16008378
-0.19719527 0.21014463 0.16005711
-0.19721584 0.21051424 0.16007514
-0.19721216 0.21084457 0.16018252
-0.19719635 0.21115520 0.16033455
-0.19796176 0.21274093 0.15761251
-0.19794585 0.21305349 0.15776548
-0.19784404 0.21322539 0.15823435
-0.19706040 0.21227848 0.16121000
-0.19703250 0.21256905 0.16140643
-0.19701670 0.21287948 0.16155835
-0.19698878 0.21316994 0.16175478
-0.19696089 0.21346036 0.16195114
-0.19694509 0.21377072 0.16210303
-0.19692930 0.21408109 0.16225493
-0.19688931 0.21435133 0.16249563
-0.19854586 0.25023151 0.16565715
-0.19851710 0.25052561 0.16585811
-0.19848837 0.25081968 0.16605898
-0.19845961 0.25111366 0.16625987
-0.19844342 0.25143182 0.16641557
-0.19841468 0.25172573 0.16661637
-0.19838594 0.25201955 0.16681718
-0.19835721 0.25231333 0.16701791
-0.19832848 0.25260706 0.16721861
-0.19831230 0.25292509 0.16737426
-0.19832118 0.25329193 0.16743989
-0.19833007 0.25365893 0.16750554
-0.19831388 0.25397709 0.16766125
-0.19796420 0.26274484 0.17155307
-0.19794799 0.26306322 0.17170889
-0.19793179 0.26338160 0.17186470
-0.19792808 0.26372542 0.17197595
-0.19789938 0.26401836 0.17217634
-0.19784566 0.26426017 0.17246586
-0.19780448 0.26452738 0.17271066
-0.19776332 0.26479450 0.17295536
-0.19774713 0.26511266 0.17311107
-0.19771847 0.26540522 0.17331120
-0.19729984 0.27579840 0.17794157
-0.19723386 0.27601005 0.17827334
-0.19720524 0.27630160 0.17847304
-0.19717663 0.27659312 0.17867267
-0.19716044 0.27691131 0.17882839
-0.19713181 0.27720271 0.17902802
-0.19711562 0.27752087 0.17918373
-0.19711185 0.27786588 0.17929557
-0.19712048 0.27823782 0.17936363
-0.19710428 0.27855608 0.17951938
-0.19708809 0.27887433 0.17967514
-0.19695956 0.28248437 0.18121372
-0.19693093 0.28277539 0.18141323
-0.19690234 0.28306637 0.18161266
-0.19686132 0.28332988 0.18185571
-0.19684512 0.28364813 0.18201147
-0.19679176 0.28388405 0.18229791
-0.19677557 0.28420221 0.18245362
-0.19674700 0.28449288 0.18265283
-0.19673081 0.28481101 0.18280852
-0.19670223 0.28510156 0.18300773
-0.19673555 0.28553004 0.18298950
-0.19671936 0.28584826 0.18314524
-0.19670316 0.28616648 0.18330098
-0.19669935 0.28651241 0.18341326
-0.19669553 0.28685841 0.18352558
-0.19669173 0.28720449 0.18363788
-0.19668790 0.28755061 0.18375025
-0.19672125 0.28798041 0.18373228
-0.19672981 0.28835468 0.18380129
-0.19671360 0.28867322 0.18395718
-0.19673459 0.28907572 0.18398274
-0.19668118 0.28931029 0.18426897
-0.19666497 0.28962883 0.18442487
-0.19664875 0.28994737 0.18458076
-0.19659540 0.29018162 0.18486671
-0.19654208 0.29041574 0.18515247
-0.19651352 0.29070597 0.18535153
-0.19648494 0.29099611 0.18555060
-0.19646874 0.29131440 0.18570637
-0.19645254 0.29163268 0.18586214
-0.19649815 0.29209227 0.18580180
-0.19650669 0.29246736 0.18587114
-0.19650285 0.29281420 0.18598381
-0.19648664 0.29313274 0.18613970
-0.19648280 0.29347970 0.18625236
-0.19647896 0.29382674 0.18636506
-0.19648748 0.29420233 0.18643458
-0.19644653 0.29446394 0.18667691
-0.19643032 0.29478254 0.18683283
-0.19486503 0.32282461 0.20112768
-0.19483664 0.32311157 0.20132513
-0.19482044 0.32342982 0.20148089
-0.19479205 0.32371669 0.20167830
-0.19477585 0.32403492 0.20183404
-0.19478404 0.32441604 0.20190653
-0.19476784 0.32473433 0.20206230
-0.19473945 0.32502109 0.20225966
-0.19472325 0.32533935 0.20241542
-0.19470706 0.32565760 0.20257117
-0.19470304 0.32600747 0.20268538
-0.19468684 0.32632575 0.20284116
-0.19464629 0.32658069 0.20307996
-0.19463009 0.32689892 0.20323570
-0.19461389 0.32721714 0.20339144
-0.19460987 0.32756712 0.20350571
-0.19459367 0.32788537 0.20366146
-0.19457748 0.32820363 0.20381722
-0.19454911 0.32849003 0.20401440
-0.19452077 0.32877638 0.20421150
-0.19450457 0.32909457 0.20436722
-0.19450052 0.32944469 0.20448162
-0.19450865 0.32982688 0.20455463
-0.19449245 0.33014517 0.20471040
-0.19446409 0.33043140 0.20490750
-0.19444790 0.33074966 0.20506326
-0.19444385 0.33110003 0.20517772
-0.19442766 0.33141831 0.20533349
-0.19441146 0.33173659 0.20548926
-0.19439526 0.33205488 0.20564503
-0.19437906 0.33237317 0.20580080
-0.19435071 0.33265918 0.20599779
-0.19433451 0.33297744 0.20615355
-0.19430617 0.33326335 0.20635049
-0.19430212 0.33361394 0.20646506
-0.19428592 0.33393219 0.20662081
-0.19426972 0.33425045 0.20677657
-0.19425353 0.33456870 0.20693232
-0.19423733 0.33488695 0.20708808
-0.19423327 0.33523773 0.20720274
-0.19424135 0.33562116 0.20727629
-0.19420087 0.33587430 0.20751428
-0.19419682 0.33622523 0.20762895
-0.19416847 0.33651087 0.20782582
-0.19414014 0.33679647 0.20802261
-0.19412395 0.33711473 0.20817837
-0.19411987 0.33746573 0.20829313
-0.19410367 0.33778402 0.20844890
-0.19408747 0.33810229 0.20860467
-0.19405916 0.33838774 0.20880139
-0.19404296 0.33870600 0.20895714
-0.19402676 0.33902425 0.20911290
-0.19402268 0.33937544 0.20922776
-0.19398225 0.33962780 0.20946529
-0.19396606 0.33994602 0.20962103
-0.19396197 0.34029727 0.20973592
-0.19394577 0.34061552 0.20989168
-0.19394168 0.34096686 0.21000661
-0.19392548 0.34128515 0.21016238
-0.19389718 0.34157028 0.21035894
-0.19388098 0.34188854 0.21051470
-0.19387689 0.34224000 0.21062969
-0.19386069 0.34255829 0.21078546
-0.19383239 0.34284329 0.21098196
-0.19380410 0.34312824 0.21117843
-0.19378790 0.34344646 0.21133417
-0.19378380 0.34379806 0.21144923
-0.19450964 0.34616632 0.20910914
-0.19449334 0.34648650 0.20926584
-0.19447704 0.34680669 0.20942254
-0.19446075 0.34712687 0.20957924
-0.19636840 0.15459763 0.14655252
-0.19632950 0.15487257 0.14679034
-0.19630234 0.15516140 0.14698333
-0.19628693 0.15546420 0.14713153
-0.20067912 0.16771436 0.13233643
-0.20067573 0.16804442 0.13244236
-0.20069760 0.16840622 0.13245250
-0.20078262 0.16884761 0.13222294
-0.20074134 0.16913043 0.13247281
-0.20064959 0.16934941 0.13291410
-0.20062097 0.16964785 0.13311582
-0.20068067 0.17005817 0.13298258
-0.20075311 0.17048504 0.13280120
-0.20086024 0.17129204 0.13258183
-0.20085688 0.17162334 0.13268804
-0.20082817 0.17192226 0.13289026
-0.20081213 0.17223736 0.13304447
-0.20078343 0.17253619 0.13324665
-0.20078006 0.17286758 0.13335291
-0.20076402 0.17318268 0.13350712
-0.20074798 0.17349779 0.13366134
-0.20071929 0.17379649 0.13386345
-0.20271704 0.17843329 0.12687367
-0.20255732 0.17856499 0.12757241
-0.20251500 0.17885054 0.12782733
-0.20252476 0.17920467 0.12788547
-0.20265186 0.17971404 0.12750048
-0.20263556 0.18003422 0.12765718
-0.20261927 0.18035441 0.12781388
-0.19840905 0.17642188 0.14417062
-0.19836882 0.17669914 0.14441459
-0.19829198 0.17692702 0.14479657
-0.19826399 0.17722044 0.14499427
-0.19823602 0.17751382 0.14519189
-0.19822025 0.17782365 0.14534352
-0.19818009 0.17810041 0.14558705
-0.19813994 0.17837704 0.14583051
-0.19812417 0.17868675 0.14598208
-0.19815718 0.17906296 0.14595005
-0.19872750 0.18150589 0.14426625
-0.19868704 0.18178335 0.14451122
-0.19865887 0.18207769 0.14470989
-0.19871688 0.18249127 0.14458463
-0.20166999 0.19136561 0.13481468
-0.20162792 0.19164814 0.13506773
-0.20158587 0.19193057 0.13532066
-0.20153093 0.19219442 0.13562186
-0.20155339 0.19256890 0.13563307
-0.20188596 0.19476274 0.13486541
-0.20186966 0.19508292 0.13502211
-0.20185337 0.19540311 0.13517881
-0.20183707 0.19572329 0.13533551
-0.20182077 0.19604348 0.13549221
-0.20180448 0.19636366 0.13564891
-0.20178818 0.19668385 0.13580561
-0.20177189 0.19700403 0.13596231
-0.20175559 0.19732422 0.13611901
-0.20173930 0.19764440 0.13627571
-0.20141338 0.20404811 0.13940973
-0.20126798 0.20417146 0.14004677
-0.20123880 0.20447163 0.14025129
-0.20124831 0.20483093 0.14031190
-0.20134820 0.20532884 0.14003653
-0.20133190 0.20564903 0.14019323
-0.20131561 0.20596921 0.14034993
-0.20129931 0.20628940 0.14050663
-0.18952763 0.19098404 0.18503967
-0.18950211 0.19125877 0.18522195
-0.18949796 0.19156699 0.18532497
-0.19709181 0.21054192 0.15913118
-0.19707598 0.21085298 0.15928341
-0.19708443 0.21120364 0.15934604
-0.19766623 0.21249130 0.15729297
-0.19765032 0.21280390 0.15744595
-0.19763441 0.21311649 0.15759894
-0.19759400 0.21338886 0.15784227
-0.19751690 0.21360075 0.15822084
-0.19748877 0.21389299 0.15841881
-0.19743619 0.21414482 0.15870684
-0.19742030 0.21445709 0.15885967
-0.19740441 0.21476935 0.15901249
-0.19922974 0.24695291 0.16040761
-0.19921345 0.24727309 0.16056431
-0.19919715 0.24759328 0.16072102
-0.19918086 0.24791346 0.16087772
-0.19821627 0.25027521 0.16553359
-0.19818754 0.25056931 0.16573455
-0.19815884 0.25086337 0.16593544
-0.19813012 0.25115734 0.16613634
-0.19811393 0.25147550 0.16629205
-0.19808523 0.25176941 0.16649285
-0.19806904 0.25208754 0.16664854
-0.19804032 0.25238132 0.16684935
-0.19799912 0.25265072 0.16709513
-0.19800794 0.25301751 0.16716071
-0.19763073 0.26313232 0.17154066
-0.19761453 0.26345073 0.17169649
-0.19660889 0.28212784 0.18106544
-0.19659269 0.28244612 0.18122121
-0.19656413 0.28273707 0.18142064
-0.19654793 0.28305532 0.18157639
-0.19649466 0.28329142 0.18186296
-0.19647846 0.28360958 0.18201867
-0.19643756 0.28387285 0.18226151
-0.19642137 0.28419095 0.18241719
-0.19640518 0.28450904 0.18257287
-0.19638899 0.28482714 0.18272855
-0.19637280 0.28514524 0.18288423
-0.19635661 0.28546333 0.18303990
-0.19638980 0.28589196 0.18302169
-0.19637360 0.28621018 0.18317743
-0.19635741 0.28652840 0.18333317
-0.19636591 0.28690211 0.18340200
-0.19634971 0.28722040 0.18355777
-0.19633351 0.28753868 0.18371354
-0.19637906 0.28799625 0.18365213
-0.19639993 0.28839842 0.18367761
-0.19638372 0.28871696 0.18383351
-0.19635129 0.28935403 0.18414529
-0.19631887 0.28999111 0.18445708
-0.19627797 0.29025346 0.18469967
-0.19624940 0.29054379 0.18489892
-0.19619619 0.29077780 0.18518467
-0.19615532 0.29103981 0.18542702
-0.19613912 0.29135810 0.18558279
-0.19613526 0.29170463 0.18569529
-0.19619305 0.29219258 0.18559160
-0.19618917 0.29253940 0.18570424
-0.19617296 0.29285794 0.18586013
-0.19615675 0.29317648 0.18601602
-0.19616523 0.29355188 0.18608543
-0.19450705 0.32315527 0.20120157
-0.19449085 0.32347352 0.20135732
-0.19446249 0.32376039 0.20155474
-0.19444629 0.32407861 0.20171048
-0.19445441 0.32445975 0.20178295
-0.19443821 0.32477803 0.20193872
-0.19439770 0.32503328 0.20217770
-0.19425194 0.32789728 0.20357936
-0.19424789 0.32824733 0.20369365
-0.19421955 0.32853372 0.20389084
-0.19419124 0.32882007 0.20408795
-0.19396041 0.33362527 0.20638268
-0.19395633 0.33397589 0.20649725
-0.19394014 0.33429415 0.20665300
-0.19389974 0.33454750 0.20689099
-0.19387125 0.33591800 0.20739070
-0.19386716 0.33626894 0.20750536
-0.19383885 0.33655458 0.20770224
-0.19381056 0.33684017 0.20789905
-0.19379436 0.33715843 0.20805480
-0.19379025 0.33750943 0.20816955
-0.19377405 0.33782772 0.20832533
-0.19375785 0.33814600 0.20848109
-0.19372957 0.33843144 0.20867782
-0.19372545 0.33878257 0.20879264
-0.19370925 0.33910086 0.20894841
-0.19369306 0.33941914 0.20910418
-0.19365269 0.33967149 0.20934174
-0.19363650 0.33998971 0.20949748
-0.19363238 0.34034097 0.20961236
-0.19361619 0.34065922 0.20976811
-0.19361206 0.34101057 0.20988303
-0.19359586 0.34132885 0.21003880
-0.19356759 0.34161398 0.21023538
-0.19417805 0.34621028 0.20898482
-0.19416175 0.34653047 0.20914152
-0.19414545 0.34685065 0.20929822
-0.19412916 0.34717084 0.20945492
-0.19605473 0.15463922 0.14643492
-0.19602759 0.15492813 0.14662796
-0.19598875 0.15520298 0.14686576
-0.19596163 0.15549174 0.14705873
-0.19609862 0.15597754 0.14662444
-0.19608319 0.15628068 0.14677281
-0.20039954 0.16948821 0.13250463
-0.20037093 0.16978681 0.13270651
-0.20038012 0.17013338 0.13276464
-0.20053392 0.17133531 0.13245949
-0.20053051 0.17166661 0.13256569
-0.20050184 0.17196553 0.13276792
-0.20047317 0.17226438 0.13297011
-0.20045713 0.17257945 0.13312431
-0.20042849 0.17287823 0.13332642
-0.20042506 0.17320960 0.13343271
-0.20042166 0.17354106 0.13353899
-0.20240175 0.17815707 0.12659265
-0.20238545 0.17847726 0.12674935
-0.20236916 0.17879744 0.12690606
-0.20235286 0.17911763 0.12706276
-0.20233657 0.17943782 0.12721946
-0.20232027 0.17975800 0.12737616
-0.20230398 0.18007819 0.12753286
-0.19807570 0.17644806 0.14409637
-0.19799900 0.17667607 0.14447856
-0.19795886 0.17695313 0.14472232
-0.19793093 0.17724654 0.14491997
-0.19791516 0.17755636 0.14507160
-0.19787506 0.17783317 0.14531517
-0.19783496 0.17810986 0.14555869
-0.19779490 0.17838647 0.14580204
-0.19780343 0.17872928 0.14586184
-0.19849456 0.18133883 0.14371476
-0.19841727 0.18156561 0.14409900
-0.19840142 0.18187705 0.14425142
-0.19841013 0.18222254 0.14431123
-0.19840656 0.18255110 0.14441739
-0.20131021 0.19171037 0.13489536
-0.20125534 0.19197439 0.13519674
-0.20123909 0.19229356 0.13535294
-0.20157066 0.19448652 0.13458439
-0.20155437 0.19480670 0.13474109
-0.20153807 0.19512688 0.13489779
-0.20152178 0.19544707 0.13505449
-0.20150548 0.19576726 0.13521119
-0.20148919 0.19608744 0.13536789
-0.20147289 0.19640763 0.13552459
-0.20145659 0.19672781 0.13568129
-0.20144030 0.19704800 0.13583799
-0.20142400 0.19736818 0.13599469
-0.20108179 0.20409207 0.13928541
-0.20106549 0.20441225 0.13944211
-0.20104920 0.20473244 0.13959881
-0.20103290 0.20505262 0.13975551
-0.20101661 0.20537281 0.13991221
-0.20100031 0.20569299 0.14006891
-0.20098402 0.20601318 0.14022561
-0.20096772 0.20633337 0.14038231
-0.20095142 0.20665355 0.14053901
-0.18922577 0.19102406 0.18492650
-0.18920028 0.19129879 0.18510879
-0.18918544 0.19159024 0.18525143
-0.19736209 0.21188907 0.15691088
-0.19737062 0.21224162 0.15697337
-0.19735471 0.21255425 0.15712637
-0.19733880 0.21286688 0.15727937
-0.19731067 0.21315942 0.15747757
-0.19727033 0.21343178 0.15772092
-0.19724221 0.21372417 0.15791905
-0.19717749 0.21395603 0.15825244
-0.19716159 0.21426842 0.15840532
-0.19715789 0.21460101 0.15851313
-0.19722742 0.21505526 0.15835038
-0.19912630 0.24251428 0.15808949
-0.19911000 0.24283446 0.15824619
-0.19909370 0.24315465 0.15840289
-0.19907741 0.24347484 0.15855959
-0.19889815 0.24699687 0.16028330
-0.19888186 0.24731706 0.16044000
-0.19886556 0.24763724 0.16059670
-0.19884927 0.24795743 0.16075340
-0.19883297 0.24827761 0.16091010
-0.19881667 0.24859780 0.16106680
-0.19880038 0.24891798 0.16122350
-0.19878408 0.24923817 0.16138020
-0.19876779 0.24955835 0.16153690
-0.19783438 0.25161618 0.16598787
-0.19781818 0.25193446 0.16614364
-0.19780198 0.25225275 0.16629941
-0.19778578 0.25257103 0.16645518
-0.19746676 0.26316258 0.17072436
-0.19743806 0.26345589 0.17092515
-0.19742183 0.26377465 0.17108115
-0.19621834 0.28309902 0.18145282
-0.19607575 0.28455272 0.18244936
-0.19606481 0.28665527 0.18307912
-0.19604861 0.28697359 0.18323491
-0.19603241 0.28729190 0.18339069
-0.19140343 0.32273755 0.21247840
-0.19138756 0.32304939 0.21263101
-0.19137169 0.32336124 0.21278363
-0.19135582 0.32367307 0.21293625
-0.19133995 0.32398491 0.21308886
-0.19130085 0.32423514 0.21332086
-0.19128499 0.32454692 0.21347344
-0.19128073 0.32488956 0.21358637
-0.19126486 0.32520137 0.21373897
-0.19124899 0.32551318 0.21389157
-0.19123312 0.32582499 0.21404417
-0.19120565 0.32610581 0.21423638
-0.19118978 0.32641758 0.21438896
-0.19118551 0.32676041 0.21450198
-0.19383016 0.34657443 0.20901721
-0.19381387 0.34689462 0.20917391
-0.19379757 0.34721480 0.20933061
-0.19572936 0.15466686 0.14636215
-0.19570226 0.15495574 0.14655519
-0.19567516 0.15524456 0.14674820
-0.19563638 0.15551927 0.14698596
-0.19562098 0.15582202 0.14713413
-0.19569904 0.15623758 0.14692411
-0.19576551 0.15663959 0.14675866
-0.20260792 0.16763493 0.12129722
-0.20238327 0.16769824 0.12225083
-0.20234102 0.16798581 0.12250666
-0.20232475 0.16830543 0.12266309
-0.20230848 0.16862504 0.12281951
-0.20023280 0.17141091 0.13224106
-0.20021676 0.17172608 0.13239531
-0.20020072 0.17204124 0.13254955
-0.20017207 0.17234016 0.13275179
-0.20013084 0.17262272 0.13300198
-0.20010222 0.17292149 0.13320410
-0.20011137 0.17326921 0.13326243
-0.20216793 0.17627993 0.12552813
-0.20215163 0.17660012 0.12568483
-0.20208645 0.17788086 0.12631164
-0.20207015 0.17820104 0.12646834
-0.20205386 0.17852122 0.12662504
-0.20203756 0.17884141 0.12678174
-0.20202127 0.17916159 0.12693844
-0.20200497 0.17948179 0.12709514
-0.20198867 0.17980197 0.12725184
-0.19770597 0.17642510 0.14416044
-0.19765374 0.17668582 0.14445036
-0.19762583 0.17697925 0.14464804
-0.19759793 0.17727262 0.14484569
-0.19758216 0.17758242 0.14499730
-0.19756639 0.17789222 0.14514892
-0.19751422 0.17815238 0.14543844
-0.19747423 0.17842899 0.14568182
-0.19748269 0.17877180 0.14574159
-0.19824909 0.18115465 0.14320905
-0.19817187 0.18138161 0.14359377
-0.19814376 0.18167625 0.14379262
-0.19812790 0.18198782 0.14394511
-0.19811204 0.18229938 0.14409759
-0.19809619 0.18261095 0.14425007
-0.19808033 0.18292252 0.14440256
-0.20125536 0.19421030 0.13430337
-0.20123907 0.19453048 0.13446007
-0.20122277 0.19485067 0.13461677
