ply
format ascii 1.0
element vertex 1368
property float x
property float y
property float z
end_header
-0.13721841 -0.11225698 0.09104841
-0.13725050 -0.11195106 0.09094687
-0.13728260 -0.11164515 0.09084532
-0.13731469 -0.11133923 0.09074378
-0.13734678 -0.11103331 0.09064223
-0.13761131 -0.10709255 0.09040097
-0.13763579 -0.10677042 0.09036059
-0.13766281 -0.10645396 0.09029990
-0.13769234 -0.10614312 0.09021889
-0.13772436 -0.10583786 0.09011756
-0.13775385 -0.10552705 0.09003656
-0.13717332 -0.10090850 0.09613523
-0.13718527 -0.10056524 0.09619378
-0.13720702 -0.10024322 0.09617310
-0.13722630 -0.09991606 0.09617223
-0.13725540 -0.09960996 0.09609215
-0.13730416 -0.09934567 0.09585362
-0.13734065 -0.09905517 0.09571409
-0.13864348 -0.09291127 0.08895759
-0.13865758 -0.09257271 0.08899865
-0.13867926 -0.09224929 0.08897893
-0.13957534 -0.08666245 0.08490313
-0.13959697 -0.08633874 0.08488396
-0.13962377 -0.08602463 0.08482387
-0.13965315 -0.08571534 0.08474326
-0.13968509 -0.08541079 0.08464216
-0.13971704 -0.08510625 0.08454108
-0.13974380 -0.08479228 0.08448101
-0.13977056 -0.08447837 0.08442092
-0.13979992 -0.08416919 0.08434035
-0.13981634 -0.08383668 0.08436232
-0.13983793 -0.08351364 0.08434328
-0.13986986 -0.08320927 0.08424225
-0.13970713 -0.07506580 0.08882663
-0.13973609 -0.07476118 0.08874697
-0.13976504 -0.07445658 0.08866733
-0.13979655 -0.07415624 0.08856763
-0.13983061 -0.07386011 0.08844787
-0.13986212 -0.07355975 0.08834817
-0.14200005 -0.06667543 0.07591812
-0.14203214 -0.06636951 0.07581657
-0.14206424 -0.06606359 0.07571503
-0.14209633 -0.06575768 0.07561348
-0.14212842 -0.06545176 0.07551194
-0.14216051 -0.06514584 0.07541039
-0.14219260 -0.06483993 0.07530885
-0.14222469 -0.06453401 0.07520730
-0.14225678 -0.06422810 0.07510576
-0.14228888 -0.06392217 0.07500421
-0.14232097 -0.06361626 0.07490266
-0.14235306 -0.06331034 0.07480112
-0.14238515 -0.06300443 0.07469957
-0.14241724 -0.06269852 0.07459803
-0.14244933 -0.06239259 0.07449648
-0.14248143 -0.06208668 0.07439494
-0.14251352 -0.06178076 0.07429339
-0.14254561 -0.06147485 0.07419185
-0.14257770 -0.06116893 0.07409030
-0.14260979 -0.06086301 0.07398875
-0.14264188 -0.06055710 0.07388721
-0.14267397 -0.06025118 0.07378566
-0.14270607 -0.05994526 0.07368412
-0.14273816 -0.05963935 0.07358257
-0.14277025 -0.05933343 0.07348103
-0.14280234 -0.05902752 0.07337948
-0.14283443 -0.05872160 0.07327793
-0.14286652 -0.05841568 0.07317639
-0.14289862 -0.05810977 0.07307484
-0.14293071 -0.05780385 0.07297330
-0.14296280 -0.05749793 0.07287175
-0.14299489 -0.05719201 0.07277021
-0.14302698 -0.05688610 0.07266866
-0.14305907 -0.05658018 0.07256712
-0.14309117 -0.05627426 0.07246557
-0.14312326 -0.05596835 0.07236402
-0.14315535 -0.05566243 0.07226248
-0.14318744 -0.05535652 0.07216093
-0.14321953 -0.05505060 0.07205939
-0.14325162 -0.05474468 0.07195784
-0.14328371 -0.05443877 0.07185630
-0.14331581 -0.05413285 0.07175475
-0.14334790 -0.05382694 0.07165321
-0.14337999 -0.05352102 0.07155166
-0.14341208 -0.05321510 0.07145011
-0.14344417 -0.05290919 0.07134857
-0.14347626 -0.05260327 0.07124702
-0.14350836 -0.05229735 0.07114548
-0.14354045 -0.05199143 0.07104393
-0.14357254 -0.05168552 0.07094239
-0.14360463 -0.05137961 0.07084084
-0.14363672 -0.05107368 0.07073930
-0.14366881 -0.05076777 0.07063775
-0.14370090 -0.05046185 0.07053620
-0.14373300 -0.05015594 0.07043466
-0.14376509 -0.04985002 0.07033311
-0.14379718 -0.04954410 0.07023157
-0.14382927 -0.04923819 0.07013002
-0.14386136 -0.04893227 0.07002848
-0.14389345 -0.04862635 0.06992693
-0.14392555 -0.04832044 0.06982539
-0.14395764 -0.04801452 0.06972384
-0.14398973 -0.04770861 0.06962230
-0.14402182 -0.04740269 0.06952075
-0.14405391 -0.04709677 0.06941920
-0.14408600 -0.04679086 0.06931766
-0.14411809 -0.04648494 0.06921611
-0.14415019 -0.04617902 0.06911457
-0.14418228 -0.04587310 0.06901302
-0.14421437 -0.04556719 0.06891148
-0.14424646 -0.04526127 0.06880993
-0.14427855 -0.04495535 0.06870838
-0.14431064 -0.04464944 0.06860684
-0.14434274 -0.04434352 0.06850529
-0.14437483 -0.04403761 0.06840375
-0.14440692 -0.04373169 0.06830220
-0.14443901 -0.04342577 0.06820066
-0.14447110 -0.04311986 0.06809911
-0.12483451 -0.19928608 0.14131726
-0.12486536 -0.19899199 0.14121964
-0.12489621 -0.19869789 0.14112201
-0.12492706 -0.19840381 0.14102440
-0.12495792 -0.19810971 0.14092677
-0.12498877 -0.19781562 0.14082915
-0.12501962 -0.19752153 0.14073153
-0.12505047 -0.19722744 0.14063391
-0.12508132 -0.19693335 0.14053629
-0.12511217 -0.19663925 0.14043867
-0.12514302 -0.19634516 0.14034105
-0.12517387 -0.19605106 0.14024343
-0.12520472 -0.19575698 0.14014581
-0.12523558 -0.19546288 0.14004819
-0.12538983 -0.19399242 0.13956009
-0.12542068 -0.19369833 0.13946246
-0.12545153 -0.19340424 0.13936484
-0.12548238 -0.19311015 0.13926722
-0.12551324 -0.19281606 0.13916960
-0.12554409 -0.19252196 0.13907198
-0.12557494 -0.19222787 0.13897436
-0.12560579 -0.19193378 0.13887674
-0.12563664 -0.19163969 0.13877912
-0.12566749 -0.19134559 0.13868150
-0.12588345 -0.18928695 0.13799816
-0.12591430 -0.18899286 0.13790053
-0.12594515 -0.18869876 0.13780291
-0.12597600 -0.18840467 0.13770529
-0.12600685 -0.18811058 0.13760767
-0.12603771 -0.18781649 0.13751005
-0.12606856 -0.18752240 0.13741243
-0.12609941 -0.18722831 0.13731481
-0.12613026 -0.18693421 0.13721719
-0.12616111 -0.18664012 0.13711957
-0.12619196 -0.18634603 0.13702195
-0.12622281 -0.18605193 0.13692433
-0.12625366 -0.18575784 0.13682671
-0.12729398 -0.17614136 0.13340807
-0.12732684 -0.17585519 0.13329246
-0.12735973 -0.17556899 0.13317686
-0.12739465 -0.17529080 0.13304328
-0.12743363 -0.17502859 0.13287381
-0.12746653 -0.17474229 0.13275814
-0.12749335 -0.17443199 0.13269637
-0.12751612 -0.17410578 0.13267054
-0.12753886 -0.17377967 0.13264473
-0.12754941 -0.17340598 0.13272664
-0.12758026 -0.17311188 0.13262902
-0.12934266 -0.17573953 0.11884427
-0.12937436 -0.17543742 0.11874398
-0.12940820 -0.17514352 0.11862469
-0.13019771 -0.17135203 0.11454877
-0.13020975 -0.17097537 0.11462124
-0.13023499 -0.17064753 0.11457820
-0.13026463 -0.17033591 0.11449671
-0.13029206 -0.17001626 0.11443446
-0.13031949 -0.16969666 0.11437222
-0.13034694 -0.16937711 0.11430998
-0.13037877 -0.16907366 0.11420926
-0.13041060 -0.16877022 0.11410853
-0.13044019 -0.16845876 0.11402707
-0.13047203 -0.16815533 0.11392634
-0.13049725 -0.16782796 0.11388342
-0.13052908 -0.16752456 0.11378271
-0.12988463 -0.16068627 0.12130639
-0.12990302 -0.16034298 0.12131925
-0.12991494 -0.15997724 0.12138801
-0.12992473 -0.15960427 0.12147530
-0.12994951 -0.15928403 0.12143232
-0.12997429 -0.15896387 0.12138933
-0.12999906 -0.15864379 0.12134633
-0.13002600 -0.15833123 0.12128477
-0.13005507 -0.15802617 0.12120458
-0.13008844 -0.15773599 0.12108719
-0.13035686 -0.14664359 0.12384316
-0.13038772 -0.14634950 0.12374554
-0.13041857 -0.14605541 0.12364792
-0.13044942 -0.14576131 0.12355030
-0.13048027 -0.14546722 0.12345268
-0.13051112 -0.14517313 0.12335506
-0.13054197 -0.14487904 0.12325744
-0.13057282 -0.14458494 0.12315982
-0.13060367 -0.14429085 0.12306220
-0.13063452 -0.14399676 0.12296458
-0.13449081 -0.13585008 0.09867327
-0.13452290 -0.13554417 0.09857172
-0.13455499 -0.13523825 0.09847018
-0.13458708 -0.13493233 0.09836863
-0.13461918 -0.13462642 0.09826709
-0.13465127 -0.13432050 0.09816554
-0.13468336 -0.13401458 0.09806400
-0.13497218 -0.13126134 0.09715009
-0.13500427 -0.13095542 0.09704854
-0.13503637 -0.13064950 0.09694699
-0.13506846 -0.13034359 0.09684545
-0.13510055 -0.13003767 0.09674390
-0.13513264 -0.12973175 0.09664236
-0.13516473 -0.12942584 0.09654081
-0.13519682 -0.12911992 0.09643927
-0.13635212 -0.11810693 0.09278363
-0.13638421 -0.11780101 0.09268208
-0.13641630 -0.11749509 0.09258053
-0.13644839 -0.11718918 0.09247899
-0.13648049 -0.11688326 0.09237744
-0.13651258 -0.11657734 0.09227590
-0.13654467 -0.11627143 0.09217435
-0.13657676 -0.11596551 0.09207281
-0.13660885 -0.11565959 0.09197126
-0.13664094 -0.11535368 0.09186971
-0.13667304 -0.11504776 0.09176817
-0.13670513 -0.11474185 0.09166662
-0.13673722 -0.11443593 0.09156508
-0.13676931 -0.11413001 0.09146353
-0.13680140 -0.11382410 0.09136199
-0.13683349 -0.11351818 0.09126044
-0.13696186 -0.11229451 0.09085426
-0.13699395 -0.11198860 0.09075271
-0.13702604 -0.11168268 0.09065117
-0.13705813 -0.11137677 0.09054962
-0.13709022 -0.11107085 0.09044808
-0.13733070 -0.10745220 0.09024757
-0.13735024 -0.10711878 0.09024784
-0.13737729 -0.10680228 0.09018716
-0.13740680 -0.10649141 0.09010616
-0.13743382 -0.10617500 0.09004548
-0.13746584 -0.10586975 0.08994416
-0.13691594 -0.10093485 0.09598381
-0.13692307 -0.10058106 0.09608200
-0.13694241 -0.10025384 0.09608114
-0.13696910 -0.09994248 0.09602089
-0.13698843 -0.09961547 0.09602003
-0.13701998 -0.09931469 0.09592019
-0.13707847 -0.09907124 0.09560238
-0.13933271 -0.08672377 0.08460725
-0.13934668 -0.08638565 0.08464968
-0.13937350 -0.08607153 0.08458956
-0.13940286 -0.08576220 0.08450896
-0.13943224 -0.08545289 0.08442838
-0.13946419 -0.08514833 0.08432729
-0.13949357 -0.08483907 0.08424669
-0.13952035 -0.08452512 0.08418665
-0.13954715 -0.08421123 0.08412660
-0.13957136 -0.08389272 0.08408708
-0.13959039 -0.08356496 0.08408857
-0.13961460 -0.08324662 0.08404908
-0.13964653 -0.08294226 0.08394805
-0.13946285 -0.07511546 0.08857579
-0.13948165 -0.07479378 0.08857641
-0.13951061 -0.07448919 0.08849676
-0.13954467 -0.07419309 0.08837701
-0.13957871 -0.07389696 0.08825724
-0.13961022 -0.07359661 0.08815754
-0.13964428 -0.07330044 0.08803777
-0.14174350 -0.06671296 0.07572397
-0.14177559 -0.06640704 0.07562242
-0.14180768 -0.06610113 0.07552087
-0.14183977 -0.06579521 0.07541933
-0.14187186 -0.06548930 0.07531778
-0.14190396 -0.06518338 0.07521624
-0.14193605 -0.06487746 0.07511469
-0.14196814 -0.06457155 0.07501315
-0.14200023 -0.06426563 0.07491160
-0.14203232 -0.06395971 0.07481005
-0.14206441 -0.06365379 0.07470851
-0.14209651 -0.06334788 0.07460696
-0.14212860 -0.06304196 0.07450542
-0.14216069 -0.06273605 0.07440387
-0.14219278 -0.06243013 0.07430233
-0.14222487 -0.06212421 0.07420078
-0.14225696 -0.06181830 0.07409924
-0.14228905 -0.06151238 0.07399769
-0.14232115 -0.06120646 0.07389614
-0.14235324 -0.06090055 0.07379460
-0.14238533 -0.06059463 0.07369305
-0.14241742 -0.06028872 0.07359151
-0.14244951 -0.05998280 0.07348996
-0.14248160 -0.05967688 0.07338842
-0.14251370 -0.05937097 0.07328687
-0.14254579 -0.05906505 0.07318533
-0.14257788 -0.05875913 0.07308378
-0.14260997 -0.05845321 0.07298223
-0.14264206 -0.05814730 0.07288069
-0.14267415 -0.05784139 0.07277914
-0.14270625 -0.05753546 0.07267760
-0.14273834 -0.05722955 0.07257605
-0.14277043 -0.05692363 0.07247451
-0.14280252 -0.05661772 0.07237296
-0.14283461 -0.05631180 0.07227141
-0.14286670 -0.05600588 0.07216987
-0.14289879 -0.05569997 0.07206832
-0.14293089 -0.05539405 0.07196678
-0.14296298 -0.05508813 0.07186523
-0.14299507 -0.05478222 0.07176369
-0.14302716 -0.05447630 0.07166214
-0.14305925 -0.05417039 0.07156060
-0.14309134 -0.05386447 0.07145905
-0.14312344 -0.05355855 0.07135750
-0.14315553 -0.05325264 0.07125596
-0.14318762 -0.05294672 0.07115441
-0.14321971 -0.05264081 0.07105287
-0.14325180 -0.05233488 0.07095132
-0.14328389 -0.05202897 0.07084978
-0.14331598 -0.05172305 0.07074823
-0.14334808 -0.05141714 0.07064669
-0.14338017 -0.05111122 0.07054514
-0.14341226 -0.05080530 0.07044359
-0.14344435 -0.05049939 0.07034205
-0.14347644 -0.05019347 0.07024050
-0.14350853 -0.04988755 0.07013896
-0.14354063 -0.04958164 0.07003741
-0.14357272 -0.04927572 0.06993587
-0.14360481 -0.04896981 0.06983432
-0.14363690 -0.04866389 0.06973277
-0.14366899 -0.04835797 0.06963123
-0.14370108 -0.04805206 0.06952968
-0.14373317 -0.04774614 0.06942814
-0.14376527 -0.04744022 0.06932659
-0.14379736 -0.04713430 0.06922505
-0.14382945 -0.04682839 0.06912350
-0.14386154 -0.04652248 0.06902196
-0.14389363 -0.04621655 0.06892041
-0.14392572 -0.04591064 0.06881886
-0.14395782 -0.04560472 0.06871732
-0.14398991 -0.04529881 0.06861577
-0.14402200 -0.04499289 0.06851423
-0.14405409 -0.04468697 0.06841268
-0.14408618 -0.04438106 0.06831114
-0.14411827 -0.04407514 0.06820959
-0.14415036 -0.04376923 0.06810805
-0.14418246 -0.04346331 0.06800650
-0.14421455 -0.04315739 0.06790495
-0.12458787 -0.19932216 0.14113060
-0.12461872 -0.19902807 0.14103298
-0.12464957 -0.19873398 0.14093536
-0.12468042 -0.19843989 0.14083774
-0.12471128 -0.19814580 0.14074012
-0.12474213 -0.19785170 0.14064250
-0.12477298 -0.19755761 0.14054488
-0.12480383 -0.19726352 0.14044726
-0.12483468 -0.19696943 0.14034964
-0.12486553 -0.19667534 0.14025202
-0.12489638 -0.19638124 0.14015440
-0.12492723 -0.19608715 0.14005678
-0.12495808 -0.19579306 0.13995916
-0.12498894 -0.19549897 0.13986154
-0.12501979 -0.19520487 0.13976391
-0.12516065 -0.19410716 0.13921412
-0.12517404 -0.19373441 0.13927581
-0.12520489 -0.19344032 0.13917819
-0.12523574 -0.19314623 0.13908057
-0.12526660 -0.19285214 0.13898295
-0.12529745 -0.19255805 0.13888533
-0.12532830 -0.19226395 0.13878771
-0.12535915 -0.19196986 0.13869009
-0.12539000 -0.19167577 0.13859247
-0.12542085 -0.19138168 0.13849485
-0.12563681 -0.18932303 0.13781150
-0.12566766 -0.18902894 0.13771388
-0.12569851 -0.18873485 0.13761626
-0.12572936 -0.18844076 0.13751864
-0.12576021 -0.18814666 0.13742102
-0.12579107 -0.18785257 0.13732340
-0.12582192 -0.18755848 0.13722578
-0.12585277 -0.18726439 0.13712816
-0.12588362 -0.18697030 0.13703054
-0.12591447 -0.18667620 0.13693292
-0.12594532 -0.18638211 0.13683530
-0.12597617 -0.18608802 0.13673767
-0.12701838 -0.17647974 0.13330107
-0.12704722 -0.17617746 0.13322132
-0.12708211 -0.17589933 0.13308779
-0.12711700 -0.17562117 0.13295420
-0.12714990 -0.17533493 0.13283859
-0.12718882 -0.17507272 0.13266904
-0.12722575 -0.17480242 0.13251742
-0.12725057 -0.17448408 0.13247365
-0.12727338 -0.17415784 0.13244787
-0.12729212 -0.17381577 0.13245800
-0.12730277 -0.17344206 0.13253999
-0.12733362 -0.17314797 0.13244237
-0.12736447 -0.17285387 0.13234475
-0.12739532 -0.17255978 0.13224713
-0.12915481 -0.17518059 0.11843293
-0.12994302 -0.17138929 0.11435602
-0.12995955 -0.17102884 0.11439005
-0.12998263 -0.17069287 0.11436630
-0.13000570 -0.17035699 0.11434258
-0.13003316 -0.17003736 0.11428035
-0.13006060 -0.16971779 0.11421811
-0.13008805 -0.16939826 0.11415591
-0.13011988 -0.16909484 0.11405520
-0.13015391 -0.16879942 0.11393522
-0.13018574 -0.16849599 0.11383450
-0.13021317 -0.16817658 0.11377230
-0.13024060 -0.16785721 0.11371012
-0.13027242 -0.16755383 0.11360942
-0.12961626 -0.16106631 0.12110431
-0.12962188 -0.16067750 0.12122905
-0.12964244 -0.16034182 0.12122331
-0.12965445 -0.15997616 0.12129208
-0.12967714 -0.15964830 0.12126773
-0.12970412 -0.15933556 0.12120612
-0.12972679 -0.15900788 0.12118178
-0.12975586 -0.15870272 0.12110158
-0.12977855 -0.15837521 0.12107725
-0.12980977 -0.15807758 0.12097845
-0.12985171 -0.15781713 0.12078652
-0.13011022 -0.14667967 0.12365651
-0.13014108 -0.14638558 0.12355889
-0.13017193 -0.14609149 0.12346127
-0.13020278 -0.14579740 0.12336365
-0.13023363 -0.14550331 0.12326603
-0.13026448 -0.14520921 0.12316841
-0.13029533 -0.14491512 0.12307079
-0.13032618 -0.14462103 0.12297317
-0.13035703 -0.14432694 0.12287555
-0.13038788 -0.14403285 0.12277792
-0.13426635 -0.13558170 0.09837757
-0.13429844 -0.13527578 0.09827602
-0.13433053 -0.13496987 0.09817448
-0.13436262 -0.13466395 0.09807293
-0.13439471 -0.13435803 0.09797139
-0.13442681 -0.13405212 0.09786984
-0.13445890 -0.13374620 0.09776830
-0.13474772 -0.13099295 0.09685438
-0.13477981 -0.13068704 0.09675284
-0.13481190 -0.13038112 0.09665129
-0.13484400 -0.13007520 0.09654975
-0.13487609 -0.12976929 0.09644820
-0.13490818 -0.12946337 0.09634666
-0.13494027 -0.12915745 0.09624511
-0.13609557 -0.11814446 0.09258947
-0.13612766 -0.11783855 0.09248792
-0.13615975 -0.11753263 0.09238638
-0.13619184 -0.11722671 0.09228483
-0.13622393 -0.11692080 0.09218329
-0.13625602 -0.11661488 0.09208174
-0.13628811 -0.11630896 0.09198020
-0.13632021 -0.11600305 0.09187865
-0.13635230 -0.11569713 0.09177711
-0.13638439 -0.11539121 0.09167556
-0.13641648 -0.11508530 0.09157401
-0.13644857 -0.11477938 0.09147247
-0.13648066 -0.11447346 0.09137092
-0.13651276 -0.11416755 0.09126938
-0.13654485 -0.11386163 0.09116783
-0.13673740 -0.11202613 0.09055856
-0.13676949 -0.11172021 0.09045701
-0.13680158 -0.11141430 0.09035547
-0.13705747 -0.10782888 0.09003307
-0.13706217 -0.10746155 0.09015542
-0.13708923 -0.10714502 0.09009473
-0.13711877 -0.10683414 0.09001374
-0.13714581 -0.10651769 0.08995308
-0.13716789 -0.10619016 0.08993308
-0.13720736 -0.10590164 0.08977075
-0.13665618 -0.10095592 0.09585221
-0.13666583 -0.10060744 0.09593065
-0.13668523 -0.10028023 0.09592981
-0.13670462 -0.09995316 0.09592897
-0.13672887 -0.09963668 0.09588854
-0.13675798 -0.09933071 0.09580853
-0.13679440 -0.09904039 0.09566908
-0.13908230 -0.08677073 0.08437285
-0.13910404 -0.08644691 0.08435377
-0.13912316 -0.08611842 0.08435524
-0.13915000 -0.08580432 0.08429514
-0.13918195 -0.08549974 0.08419404
-0.13920877 -0.08518570 0.08413399
-0.13924072 -0.08488114 0.08403290
-0.13926498 -0.08456249 0.08399339
-0.13929435 -0.08425328 0.08391280
-0.13932372 -0.08394410 0.08383227
-0.13933769 -0.08360697 0.08387488
-0.13935935 -0.08328396 0.08385591
-0.13939128 -0.08297960 0.08375488
-0.13926128 -0.07453029 0.08828609
-0.13929532 -0.07423417 0.08816632
-0.13932683 -0.07393381 0.08806662
-0.13935834 -0.07363346 0.08796692
-0.14148694 -0.06675050 0.07552981
-0.14151904 -0.06644458 0.07542826
-0.14155113 -0.06613866 0.07532672
-0.14158322 -0.06583275 0.07522517
-0.14161531 -0.06552683 0.07512363
-0.14164740 -0.06522091 0.07502208
-0.14167949 -0.06491499 0.07492054
-0.14171159 -0.06460908 0.07481899
-0.14174368 -0.06430317 0.07471745
-0.14177577 -0.06399724 0.07461590
-0.14180786 -0.06369133 0.07451435
-0.14183995 -0.06338541 0.07441281
-0.14187204 -0.06307950 0.07431126
-0.14190413 -0.06277358 0.07420972
-0.14193623 -0.06246766 0.07410817
-0.14196832 -0.06216175 0.07400663
-0.14200041 -0.06185583 0.07390508
-0.14203250 -0.06154992 0.07380354
-0.14206459 -0.06124400 0.07370199
-0.14209668 -0.06093808 0.07360044
-0.14212878 -0.06063217 0.07349890
-0.14216087 -0.06032625 0.07339735
-0.14219296 -0.06002033 0.07329581
-0.14222505 -0.05971442 0.07319426
-0.14225714 -0.05940850 0.07309272
-0.14228923 -0.05910259 0.07299117
-0.14232133 -0.05879666 0.07288962
-0.14235342 -0.05849075 0.07278808
-0.14238551 -0.05818483 0.07268653
-0.14241760 -0.05787892 0.07258499
-0.14244969 -0.05757300 0.07248344
-0.14248178 -0.05726708 0.07238190
-0.14251387 -0.05696117 0.07228035
-0.14254597 -0.05665525 0.07217881
-0.14257806 -0.05634933 0.07207726
-0.14261015 -0.05604342 0.07197571
-0.14264224 -0.05573750 0.07187417
-0.14267433 -0.05543159 0.07177262
-0.14270642 -0.05512567 0.07167108
-0.14273852 -0.05481975 0.07156953
-0.14277061 -0.05451384 0.07146799
-0.14280270 -0.05420792 0.07136644
-0.14283479 -0.05390201 0.07126490
-0.14286688 -0.05359608 0.07116335
-0.14289897 -0.05329017 0.07106180
-0.14293106 -0.05298426 0.07096026
-0.14296316 -0.05267834 0.07085871
-0.14299525 -0.05237242 0.07075717
-0.14302734 -0.05206650 0.07065562
-0.14305943 -0.05176059 0.07055408
-0.14309152 -0.05145467 0.07045253
-0.14312361 -0.05114875 0.07035098
-0.14315571 -0.05084284 0.07024944
-0.14318780 -0.05053692 0.07014789
-0.14321989 -0.05023101 0.07004635
-0.14325198 -0.04992509 0.06994480
-0.14328407 -0.04961917 0.06984326
-0.14331616 -0.04931326 0.06974171
-0.14334825 -0.04900734 0.06964017
-0.14338035 -0.04870142 0.06953862
-0.14341244 -0.04839551 0.06943707
-0.14344453 -0.04808959 0.06933553
-0.14347662 -0.04778368 0.06923398
-0.14350871 -0.04747775 0.06913244
-0.14354080 -0.04717184 0.06903089
-0.14357289 -0.04686592 0.06892935
-0.14360499 -0.04656001 0.06882780
-0.14363708 -0.04625409 0.06872625
-0.14366917 -0.04594817 0.06862471
-0.14370126 -0.04564226 0.06852316
-0.14373335 -0.04533634 0.06842162
-0.14376544 -0.04503042 0.06832007
-0.14379754 -0.04472451 0.06821853
-0.14382963 -0.04441859 0.06811698
-0.14386172 -0.04411268 0.06801544
-0.14389381 -0.04380676 0.06791389
-0.14392590 -0.04350084 0.06781234
-0.14395799 -0.04319493 0.06771080
-0.12434123 -0.19935825 0.14094395
-0.12437208 -0.19906415 0.14084633
-0.12440293 -0.19877006 0.14074871
-0.12445099 -0.19855616 0.14049221
-0.12448185 -0.19826197 0.14039456
-0.12449549 -0.19788779 0.14045585
-0.12452634 -0.19759369 0.14035823
-0.12455719 -0.19729961 0.14026061
-0.12458804 -0.19700551 0.14016299
-0.12461889 -0.19671142 0.14006537
-0.12464974 -0.19641733 0.13996774
-0.12468059 -0.19612323 0.13987012
-0.12471144 -0.19582915 0.13977250
-0.12474230 -0.19553505 0.13967488
-0.12477315 -0.19524096 0.13957726
-0.12492740 -0.19377050 0.13908916
-0.12495825 -0.19347640 0.13899154
-0.12498910 -0.19318232 0.13889392
-0.12501996 -0.19288822 0.13879630
-0.12505081 -0.19259413 0.13869868
-0.12508166 -0.19230004 0.13860106
-0.12511251 -0.19200594 0.13850343
-0.12514336 -0.19171186 0.13840582
-0.12517421 -0.19141776 0.13830819
-0.12529762 -0.19024139 0.13791771
-0.12542102 -0.18906502 0.13752723
-0.12545187 -0.18877093 0.13742961
-0.12548272 -0.18847684 0.13733199
-0.12551357 -0.18818275 0.13723437
-0.12554443 -0.18788866 0.13713675
-0.12557528 -0.18759456 0.13703913
-0.12560613 -0.18730047 0.13694151
-0.12563698 -0.18700638 0.13684388
-0.12566783 -0.18671229 0.13674626
-0.12569868 -0.18641820 0.13664864
-0.12572953 -0.18612410 0.13655102
-0.12696417 -0.18536869 0.12793060
-0.12699550 -0.18507002 0.12783146
-0.12677162 -0.17651584 0.13311432
-0.12680248 -0.17622162 0.13301666
-0.12683935 -0.17595153 0.13286512
-0.12687222 -0.17566531 0.13274949
-0.12690712 -0.17538709 0.13261588
-0.12695003 -0.17514090 0.13241036
-0.12698291 -0.17485455 0.13229465
-0.12700978 -0.17454418 0.13223290
-0.12702657 -0.17419394 0.13226109
-0.12704941 -0.17386780 0.13223533
-0.12705613 -0.17347814 0.13235334
-0.12708698 -0.17318405 0.13225571
-0.12711783 -0.17288996 0.13215809
-0.12714868 -0.17259587 0.13206047
-0.12717954 -0.17230177 0.13196285
-0.12970144 -0.17147532 0.11404765
-0.12970930 -0.17108230 0.11415886
-0.12972808 -0.17073011 0.11417366
-0.12974901 -0.17038615 0.11416921
-0.12977430 -0.17005847 0.11412625
-0.12980175 -0.16973891 0.11406405
-0.12982921 -0.16941941 0.11400184
-0.12986104 -0.16911601 0.11390113
-0.12989286 -0.16881262 0.11380042
-0.12992689 -0.16851722 0.11368045
-0.12995652 -0.16820581 0.11359900
-0.12998617 -0.16789443 0.11351758
-0.13001581 -0.16758308 0.11343616
-0.12934711 -0.16103473 0.12108294
-0.12936986 -0.16070650 0.12105859
-0.12939262 -0.16037837 0.12103424
-0.12941534 -0.16005034 0.12100992
-0.12943593 -0.15971489 0.12100422
-0.12945867 -0.15938708 0.12097991
-0.12948564 -0.15907435 0.12091832
-0.12950836 -0.15874671 0.12089403
-0.12953959 -0.15844903 0.12079521
-0.12957082 -0.15815134 0.12069640
-0.12986358 -0.14671576 0.12346986
-0.12989444 -0.14642167 0.12337224
-0.12992529 -0.14612757 0.12327462
-0.12995614 -0.14583348 0.12317700
-0.12998699 -0.14553939 0.12307937
-0.13001784 -0.14524530 0.12298175
-0.13004869 -0.14495120 0.12288413
-0.13007954 -0.14465711 0.12278651
-0.13011039 -0.14436302 0.12268889
-0.13014124 -0.14406893 0.12259127
-0.13404189 -0.13531332 0.09808187
-0.13407398 -0.13500740 0.09798032
-0.13410607 -0.13470149 0.09787878
-0.13413816 -0.13439557 0.09777723
-0.13417025 -0.13408965 0.09767569
-0.13420234 -0.13378374 0.09757414
-0.13423443 -0.13347782 0.09747259
-0.13455535 -0.13041866 0.09645714
-0.13458744 -0.13011274 0.09635559
-0.13461953 -0.12980682 0.09625405
-0.13465162 -0.12950091 0.09615250
-0.13468372 -0.12919499 0.09605096
-0.13587110 -0.11787608 0.09229377
-0.13590319 -0.11757016 0.09219222
-0.13593529 -0.11726425 0.09209068
-0.13596738 -0.11695833 0.09198913
-0.13599947 -0.11665241 0.09188759
-0.13603156 -0.11634650 0.09178604
-0.13606365 -0.11604058 0.09168450
-0.13609574 -0.11573466 0.09158295
-0.13612784 -0.11542875 0.09148140
-0.13615993 -0.11512283 0.09137986
-0.13619202 -0.11481691 0.09127831
-0.13622411 -0.11451100 0.09117677
-0.13625620 -0.11420508 0.09107522
-0.13628829 -0.11389916 0.09097368
-0.13648084 -0.11206367 0.09036440
-0.13651293 -0.11175775 0.09026286
-0.13654503 -0.11145183 0.09016131
-0.13680363 -0.10749338 0.08998198
-0.13683073 -0.10717686 0.08992133
-0.13685780 -0.10686039 0.08986068
-0.13687742 -0.10652722 0.08986104
-0.13690943 -0.10622203 0.08975973
-0.13694394 -0.10592241 0.08963807
-0.13639162 -0.10096641 0.09576027
-0.13640865 -0.10063380 0.09577931
-0.13642567 -0.10030136 0.09579832
-0.13644511 -0.09997432 0.09579750
-0.13646936 -0.09965787 0.09575709
-0.13649365 -0.09934150 0.09571669
-0.13653003 -0.09905125 0.09557725
-0.13656887 -0.09876614 0.09541801
-0.13885872 -0.08650340 0.08407832
-0.13887026 -0.08616056 0.08414139
-0.13889967 -0.08585118 0.08406081
-0.13892908 -0.08554185 0.08398020
-0.13895849 -0.08523253 0.08389964
-0.13898530 -0.08491851 0.08383960
-0.13901215 -0.08460455 0.08377957
-0.13904410 -0.08430002 0.08367849
-0.13907092 -0.08398614 0.08361846
-0.13910031 -0.08367696 0.08353795
-0.13912456 -0.08335851 0.08349848
-0.14123039 -0.06678803 0.07533566
-0.14126248 -0.06648211 0.07523411
-0.14129457 -0.06617620 0.07513256
-0.14132667 -0.06587028 0.07503102
-0.14135876 -0.06556437 0.07492947
-0.14139085 -0.06525844 0.07482793
-0.14142294 -0.06495253 0.07472638
-0.14145503 -0.06464661 0.07462484
-0.14148712 -0.06434070 0.07452329
-0.14151921 -0.06403478 0.07442174
-0.14155131 -0.06372886 0.07432020
-0.14158340 -0.06342295 0.07421865
-0.14161549 -0.06311703 0.07411711
-0.14164758 -0.06281112 0.07401556
-0.14167967 -0.06250520 0.07391402
-0.14171176 -0.06219928 0.07381247
-0.14174386 -0.06189337 0.07371093
-0.14177595 -0.06158745 0.07360938
-0.14180804 -0.06128153 0.07350783
-0.14184013 -0.06097562 0.07340629
-0.14187222 -0.06066970 0.07330474
-0.14190431 -0.06036379 0.07320320
-0.14193640 -0.06005786 0.07310165
-0.14196850 -0.05975195 0.07300011
-0.14200059 -0.05944604 0.07289856
-0.14203268 -0.05914012 0.07279702
-0.14206477 -0.05883420 0.07269547
-0.14209686 -0.05852828 0.07259392
-0.14212895 -0.05822237 0.07249238
-0.14216105 -0.05791645 0.07239083
-0.14219314 -0.05761053 0.07228929
-0.14222523 -0.05730462 0.07218774
-0.14225732 -0.05699870 0.07208620
-0.14228941 -0.05669279 0.07198465
-0.14232150 -0.05638687 0.07188310
-0.14235359 -0.05608095 0.07178156
-0.14238569 -0.05577504 0.07168001
-0.14241778 -0.05546912 0.07157847
-0.14244987 -0.05516320 0.07147692
-0.14248196 -0.05485729 0.07137538
-0.14251405 -0.05455137 0.07127383
-0.14254614 -0.05424546 0.07117229
-0.14257824 -0.05393954 0.07107074
-0.14261033 -0.05363362 0.07096919
-0.14264242 -0.05332770 0.07086765
-0.14267451 -0.05302179 0.07076610
-0.14270660 -0.05271587 0.07066456
-0.14273869 -0.05240995 0.07056301
-0.14277078 -0.05210404 0.07046147
-0.14280288 -0.05179812 0.07035992
-0.14283497 -0.05149221 0.07025838
-0.14286706 -0.05118629 0.07015683
-0.14289915 -0.05088037 0.07005528
-0.14293124 -0.05057446 0.06995374
-0.14296333 -0.05026854 0.06985219
-0.14299543 -0.04996262 0.06975065
-0.14302752 -0.04965671 0.06964910
-0.14305961 -0.04935079 0.06954756
-0.14309170 -0.04904488 0.06944601
-0.14312379 -0.04873895 0.06934446
-0.14315588 -0.04843304 0.06924292
-0.14318797 -0.04812713 0.06914137
-0.14322007 -0.04782121 0.06903983
-0.14325216 -0.04751529 0.06893828
-0.14328425 -0.04720937 0.06883674
-0.14331634 -0.04690346 0.06873519
-0.14334843 -0.04659754 0.06863365
-0.14338052 -0.04629162 0.06853210
-0.14341262 -0.04598571 0.06843055
-0.14344471 -0.04567979 0.06832901
-0.14347680 -0.04537388 0.06822746
-0.14350889 -0.04506796 0.06812592
-0.14354098 -0.04476204 0.06802437
-0.14357307 -0.04445613 0.06792283
-0.14360516 -0.04415021 0.06782128
-0.14363726 -0.04384430 0.06771974
-0.14366935 -0.04353838 0.06761819
-0.14370144 -0.04323246 0.06751664
-0.12409459 -0.19939433 0.14075730
-0.12412544 -0.19910024 0.14065968
-0.12415629 -0.19880615 0.14056206
-0.12420428 -0.19859226 0.14030551
-0.12423514 -0.19829807 0.14020785
-0.12424885 -0.19792387 0.14026919
-0.12427970 -0.19762978 0.14017157
-0.12431055 -0.19733569 0.14007395
-0.12434140 -0.19704160 0.13997633
-0.12437225 -0.19674750 0.13987871
-0.12440310 -0.19645341 0.13978109
-0.12443395 -0.19615932 0.13968347
-0.12446480 -0.19586523 0.13958585
-0.12449566 -0.19557114 0.13948823
-0.12452651 -0.19527704 0.13939061
-0.12455736 -0.19498295 0.13929299
-0.12471161 -0.19351249 0.13880488
-0.12474246 -0.19321840 0.13870727
-0.12477332 -0.19292431 0.13860964
-0.12480417 -0.19263021 0.13851202
-0.12483502 -0.19233612 0.13841440
-0.12486587 -0.19204203 0.13831678
-0.12489672 -0.19174794 0.13821916
-0.12492757 -0.19145385 0.13812154
-0.12502012 -0.19057157 0.13782868
-0.12505098 -0.19027748 0.13773106
-0.12508183 -0.18998339 0.13763344
-0.12517438 -0.18910111 0.13734058
-0.12520523 -0.18880702 0.13724295
-0.12523608 -0.18851293 0.13714533
-0.12526693 -0.18821883 0.13704771
-0.12529779 -0.18792474 0.13695009
-0.12532864 -0.18763065 0.13685247
-0.12535949 -0.18733656 0.13675485
-0.12539034 -0.18704246 0.13665723
-0.12542119 -0.18674837 0.13655961
-0.12545204 -0.18645428 0.13646199
-0.12548289 -0.18616019 0.13636437
-0.12671368 -0.18540534 0.12774104
-0.12674501 -0.18510666 0.12764190
-0.12650196 -0.17687850 0.13295345
-0.12652885 -0.17656809 0.13289167
-0.12655972 -0.17627384 0.13279399
-0.12659457 -0.17599569 0.13266041
-0.12662944 -0.17571749 0.13252679
-0.12666429 -0.17543926 0.13239314
-0.12670515 -0.17518504 0.13220553
-0.12673806 -0.17489868 0.13208983
-0.12676691 -0.17459629 0.13201010
-0.12677979 -0.17423005 0.13207433
-0.12680265 -0.17390390 0.13204859
-0.12680949 -0.17351423 0.13216668
-0.12684034 -0.17322013 0.13206906
-0.12687119 -0.17292604 0.13197144
-0.12690204 -0.17263195 0.13187382
-0.12693290 -0.17233786 0.13177620
-0.12696375 -0.17204377 0.13167858
-0.12945321 -0.17153699 0.11379698
-0.12945684 -0.17112767 0.11394689
-0.12946914 -0.17075116 0.11401955
-0.12949230 -0.17041531 0.11399587
-0.12951763 -0.17008763 0.11395294
-0.12954512 -0.16976809 0.11389074
-0.12957478 -0.16945664 0.11380929
-0.12960443 -0.16914521 0.11372785
-0.12963626 -0.16884182 0.11362715
-0.12966809 -0.16853843 0.11352644
-0.12969991 -0.16823505 0.11342573
-0.12973174 -0.16793166 0.11332503
-0.12976138 -0.16762030 0.11324361
-0.12979757 -0.16733284 0.11310432
-0.12908075 -0.16142240 0.12086218
-0.12911202 -0.16112432 0.12076323
-0.12912422 -0.16075817 0.12083220
-0.12914488 -0.16042246 0.12082653
-0.12917613 -0.16012454 0.12072764
-0.12964780 -0.14645775 0.12318558
-0.12967865 -0.14616366 0.12308796
-0.12970950 -0.14586957 0.12299034
-0.12974035 -0.14557547 0.12289272
-0.12977120 -0.14528138 0.12279510
-0.12980205 -0.14498729 0.12269748
-0.12983290 -0.14469320 0.12259986
-0.12986375 -0.14439911 0.12250224
-0.12989460 -0.14410501 0.12240462
-0.13384951 -0.13473902 0.09768462
-0.13388161 -0.13443310 0.09758308
-0.13391370 -0.13412719 0.09748153
-0.13394579 -0.13382127 0.09737998
-0.13436298 -0.12984436 0.09605989
-0.13439507 -0.12953844 0.09595835
-0.13561455 -0.11791361 0.09209961
-0.13564664 -0.11760770 0.09199807
-0.13567873 -0.11730178 0.09189652
-0.13571082 -0.11699586 0.09179498
-0.13574292 -0.11668995 0.09169343
-0.13577501 -0.11638403 0.09159189
-0.13580710 -0.11607811 0.09149034
-0.13583919 -0.11577220 0.09138879
-0.13587128 -0.11546628 0.09128725
-0.13590337 -0.11516037 0.09118570
-0.13593546 -0.11485445 0.09108416
-0.13596756 -0.11454853 0.09098261
-0.13599965 -0.11424262 0.09088107
-0.13622429 -0.11210120 0.09017025
-0.13625638 -0.11179528 0.09006870
-0.13628847 -0.11148937 0.08996716
-0.13657718 -0.10721994 0.08970722
-0.13660179 -0.10689785 0.08966693
-0.13662148 -0.10656466 0.08966735
-0.13664611 -0.10624276 0.08962707
-0.13613924 -0.10100333 0.09556927
-0.13615632 -0.10067072 0.09558835
-0.13616616 -0.10032248 0.09566684
-0.13619046 -0.10000597 0.09562644
-0.13621234 -0.09968430 0.09560586
-0.13623906 -0.09937317 0.09554565
-0.13627060 -0.09907251 0.09544585
-0.13630941 -0.09878744 0.09528660
-0.13741317 -0.09594620 0.08848548
-0.13744007 -0.09563204 0.08842520
-0.13863513 -0.08623608 0.08378377
-0.13864677 -0.08589331 0.08384696
-0.13867872 -0.08558870 0.08374584
-0.13870811 -0.08527935 0.08366526
-0.13873499 -0.08496532 0.08360522
-0.13876185 -0.08465132 0.08354523
-0.13878870 -0.08433739 0.08348521
-0.13882065 -0.08403286 0.08338412
-0.13885259 -0.08372832 0.08328303
-0.14097384 -0.06682557 0.07514150
-0.14100593 -0.06651964 0.07503995
-0.14103802 -0.06621373 0.07493841
-0.14107011 -0.06590782 0.07483686
-0.14110220 -0.06560190 0.07473532
-0.14113429 -0.06529598 0.07463377
-0.14116639 -0.06499006 0.07453223
-0.14119848 -0.06468415 0.07443068
-0.14123057 -0.06437823 0.07432914
-0.14126266 -0.06407231 0.07422759
-0.14129475 -0.06376640 0.07412604
-0.14132684 -0.06346048 0.07402450
-0.14135894 -0.06315457 0.07392295
-0.14139103 -0.06284865 0.07382141
-0.14142312 -0.06254273 0.07371986
-0.14145521 -0.06223682 0.07361832
-0.14148730 -0.06193090 0.07351677
-0.14151939 -0.06162499 0.07341523
-0.14155148 -0.06131907 0.07331368
-0.14158358 -0.06101315 0.07321213
-0.14161567 -0.06070724 0.07311059
-0.14164776 -0.06040132 0.07300904
-0.14167985 -0.06009540 0.07290750
-0.14171194 -0.05978948 0.07280595
-0.14174403 -0.05948357 0.07270441
-0.14177613 -0.05917765 0.07260286
-0.14180822 -0.05887173 0.07250131
-0.14184031 -0.05856582 0.07239977
-0.14187240 -0.05825990 0.07229822
-0.14190449 -0.05795399 0.07219668
-0.14193658 -0.05764807 0.07209513
-0.14196867 -0.05734215 0.07199359
-0.14200077 -0.05703624 0.07189204
-0.14203286 -0.05673032 0.07179050
-0.14206495 -0.05642440 0.07168895
-0.14209704 -0.05611849 0.07158740
-0.14212913 -0.05581257 0.07148586
-0.14216122 -0.05550666 0.07138431
-0.14219332 -0.05520073 0.07128277
-0.14222541 -0.05489482 0.07118122
-0.14225750 -0.05458891 0.07107968
-0.14228959 -0.05428299 0.07097813
-0.14232168 -0.05397708 0.07087659
-0.14235377 -0.05367115 0.07077504
-0.14238586 -0.05336524 0.07067349
-0.14241796 -0.05305932 0.07057195
-0.14245005 -0.05275341 0.07047040
-0.14248214 -0.05244749 0.07036886
-0.14251423 -0.05214157 0.07026731
-0.14254632 -0.05183566 0.07016577
-0.14257841 -0.05152974 0.07006422
-0.14261051 -0.05122382 0.06996267
-0.14264260 -0.05091791 0.06986113
-0.14267469 -0.05061199 0.06975958
-0.14270678 -0.05030608 0.06965804
-0.14273887 -0.05000016 0.06955649
-0.14277096 -0.04969424 0.06945495
-0.14280305 -0.04938833 0.06935340
-0.14283515 -0.04908241 0.06925186
-0.14286724 -0.04877649 0.06915031
-0.14289933 -0.04847057 0.06904876
-0.14293142 -0.04816466 0.06894722
-0.14296351 -0.04785874 0.06884567
-0.14299560 -0.04755282 0.06874413
-0.14302770 -0.04724691 0.06864258
-0.14305979 -0.04694099 0.06854104
-0.14309188 -0.04663508 0.06843949
-0.14312397 -0.04632916 0.06833794
-0.14315606 -0.04602324 0.06823640
-0.14318815 -0.04571733 0.06813485
-0.14322024 -0.04541141 0.06803331
-0.14325234 -0.04510549 0.06793176
-0.14328443 -0.04479958 0.06783022
-0.14331652 -0.04449366 0.06772867
-0.14334861 -0.04418775 0.06762713
-0.14338070 -0.04388183 0.06752558
-0.14341279 -0.04357591 0.06742403
-0.14344489 -0.04326999 0.06732249
-0.12384795 -0.19943042 0.14057064
-0.12387880 -0.19913632 0.14047302
-0.12390965 -0.19884223 0.14037540
-0.12400221 -0.19795996 0.14008254
-0.12403306 -0.19766586 0.13998492
-0.12406391 -0.19737178 0.13988730
-0.12409476 -0.19707768 0.13978968
-0.12412561 -0.19678359 0.13969206
-0.12415646 -0.19648949 0.13959444
-0.12418731 -0.19619540 0.13949682
-0.12421816 -0.19590131 0.13939920
-0.12424902 -0.19560722 0.13930158
-0.12427987 -0.19531313 0.13920396
-0.12431072 -0.19501903 0.13910633
-0.12449582 -0.19325449 0.13852061
-0.12452668 -0.19296039 0.13842299
-0.12455753 -0.19266630 0.13832537
-0.12458838 -0.19237221 0.13822775
-0.12461923 -0.19207811 0.13813013
-0.12465008 -0.19178402 0.13803251
-0.12468093 -0.19148993 0.13793489
-0.12477348 -0.19060765 0.13764203
-0.12480434 -0.19031356 0.13754441
-0.12483519 -0.19001947 0.13744679
-0.12492774 -0.18913719 0.13715392
-0.12495859 -0.18884310 0.13705630
-0.12498944 -0.18854901 0.13695868
-0.12502029 -0.18825492 0.13686106
-0.12505114 -0.18796083 0.13676344
-0.12508200 -0.18766673 0.13666582
-0.12511285 -0.18737264 0.13656820
-0.12514370 -0.18707855 0.13647058
-0.12517455 -0.18678445 0.13637296
-0.12520540 -0.18649036 0.13627534
-0.12523625 -0.18619627 0.13617772
-0.12646012 -0.18586043 0.12739249
-0.12646319 -0.18544199 0.12755147
-0.12649049 -0.18512626 0.12748921
-0.12655616 -0.18411150 0.12744989
-0.12658547 -0.18380455 0.12736923
-0.12625518 -0.17691461 0.13276669
-0.12628407 -0.17661226 0.13268697
-0.12631692 -0.17632606 0.13257133
-0.12635174 -0.17604790 0.13243769
-0.12638459 -0.17576164 0.13232203
-0.12642144 -0.17549143 0.13217038
-0.12646227 -0.17523721 0.13198271
-0.12649516 -0.17495083 0.13186698
-0.12652604 -0.17465642 0.13176926
-0.12655292 -0.17434603 0.13170755
-0.12656388 -0.17397188 0.13178989
-0.12656285 -0.17355031 0.13198003
-0.12659370 -0.17325622 0.13188241
-0.12662455 -0.17296212 0.13178479
-0.12665540 -0.17266803 0.13168717
-0.12668626 -0.17237394 0.13158955
-0.12671711 -0.17207985 0.13149193
-0.12920276 -0.17159053 0.11356559
-0.12920220 -0.17116492 0.11375418
-0.12921462 -0.17078839 0.11382693
-0.12923780 -0.17045254 0.11380327
-0.12926532 -0.17013294 0.11374106
-0.12929067 -0.16980531 0.11369818
-0.12932033 -0.16949386 0.11361673
-0.12935000 -0.16918243 0.11353530
-0.12938183 -0.16887904 0.11343460
-0.12941366 -0.16857566 0.11333389
-0.12944548 -0.16827227 0.11323319
-0.12947731 -0.16796888 0.11313248
-0.12951129 -0.16767347 0.11301247
-0.12877452 -0.16207797 0.12081491
-0.12880579 -0.16177985 0.12071596
-0.12883706 -0.16148174 0.12061700
-0.12940115 -0.14649383 0.12299893
-0.12943201 -0.14619974 0.12290131
-0.12946286 -0.14590565 0.12280369
-0.12949371 -0.14561156 0.12270607
-0.12952456 -0.14531747 0.12260845
-0.12955541 -0.14502337 0.12251083
-0.12958626 -0.14472928 0.12241321
-0.12961711 -0.14443519 0.12231559
-0.12964796 -0.14414110 0.12221797
-0.13362505 -0.13447064 0.09738892
-0.13365714 -0.13416472 0.09728737
-0.13368924 -0.13385881 0.09718583
-0.13539009 -0.11764523 0.09180391
-0.13542218 -0.11733932 0.09170237
-0.13545427 -0.11703340 0.09160082
-0.13548636 -0.11672748 0.09149928
-0.13551845 -0.11642157 0.09139773
-0.13555054 -0.11611565 0.09129618
-0.13558264 -0.11580973 0.09119464
-0.13561473 -0.11550382 0.09109309
-0.13564682 -0.11519790 0.09099155
-0.13567891 -0.11489198 0.09089000
-0.13571100 -0.11458607 0.09078846
-0.13596773 -0.11213873 0.08997609
-0.13599983 -0.11183282 0.08987455
-0.13603192 -0.11152690 0.08977300
-0.13588684 -0.10104026 0.09537826
-0.13590158 -0.10070236 0.09541721
-0.13591390 -0.10035939 0.09547594
-0.13593825 -0.10004287 0.09543557
-0.13595778 -0.09971596 0.09543483
-0.13598450 -0.09940483 0.09537467
-0.13601364 -0.09909897 0.09529469
-0.13605240 -0.09881393 0.09513541
-0.13608877 -0.09852363 0.09499594
-0.13713385 -0.09630286 0.08833254
-0.13715829 -0.09598349 0.08829259
-0.13718521 -0.09566932 0.08823233
-0.13721709 -0.09536544 0.08813146
-0.13841409 -0.08597352 0.08346865
-0.13847042 -0.08534986 0.08332805
-0.13848969 -0.08502156 0.08332971
-0.13851152 -0.08469811 0.08331082
-0.13854347 -0.08439353 0.08320972
-0.13857542 -0.08408895 0.08310862
-0.14071728 -0.06686310 0.07494734
-0.14074937 -0.06655718 0.07484580
-0.14078147 -0.06625126 0.07474425
-0.14081356 -0.06594535 0.07464271
-0.14084565 -0.06563943 0.07454116
-0.14087774 -0.06533351 0.07443962
-0.14090983 -0.06502760 0.07433807
-0.14094192 -0.06472168 0.07423652
-0.14097401 -0.06441577 0.07413498
-0.14100611 -0.06410985 0.07403343
-0.14103820 -0.06380393 0.07393189
-0.14107029 -0.06349802 0.07383034
-0.14110238 -0.06319210 0.07372880
-0.14113447 -0.06288619 0.07362725
-0.14116656 -0.06258027 0.07352571
-0.14119866 -0.06227435 0.07342416
-0.14123075 -0.06196844 0.07332262
-0.14126284 -0.06166252 0.07322107
-0.14129493 -0.06135660 0.07311952
-0.14132702 -0.06105069 0.07301798
-0.14135911 -0.06074477 0.07291643
-0.14139120 -0.06043886 0.07281489
-0.14142330 -0.06013293 0.07271334
-0.14145539 -0.05982702 0.07261180
-0.14148748 -0.05952110 0.07251025
-0.14151957 -0.05921519 0.07240871
-0.14155166 -0.05890927 0.07230716
-0.14158375 -0.05860335 0.07220561
-0.14161585 -0.05829744 0.07210407
-0.14164794 -0.05799152 0.07200252
-0.14168003 -0.05768560 0.07190098
-0.14171212 -0.05737969 0.07179943
-0.14174421 -0.05707377 0.07169789
-0.14177630 -0.05676786 0.07159634
-0.14180840 -0.05646194 0.07149479
-0.14184049 -0.05615602 0.07139325
-0.14187258 -0.05585011 0.07129170
-0.14190467 -0.05554419 0.07119016
-0.14193676 -0.05523827 0.07108861
-0.14196885 -0.05493235 0.07098707
-0.14200094 -0.05462644 0.07088552
-0.14203304 -0.05432052 0.07078398
-0.14206513 -0.05401461 0.07068243
-0.14209722 -0.05370869 0.07058088
-0.14212931 -0.05340277 0.07047934
-0.14216140 -0.05309686 0.07037779
-0.14219349 -0.05279094 0.07027625
-0.14222559 -0.05248502 0.07017470
-0.14225768 -0.05217911 0.07007316
-0.14228977 -0.05187319 0.06997161
-0.14232186 -0.05156728 0.06987007
-0.14235395 -0.05126136 0.06976852
-0.14238604 -0.05095544 0.06966697
-0.14241813 -0.05064953 0.06956543
-0.14245023 -0.05034361 0.06946388
-0.14248232 -0.05003769 0.06936234
-0.14251441 -0.04973177 0.06926079
-0.14254650 -0.04942586 0.06915925
-0.14257859 -0.04911995 0.06905770
-0.14261068 -0.04881402 0.06895615
-0.14264278 -0.04850811 0.06885461
-0.14267487 -0.04820219 0.06875306
-0.14270696 -0.04789628 0.06865152
-0.14273905 -0.04759036 0.06854997
-0.14277114 -0.04728444 0.06844843
-0.14280323 -0.04697853 0.06834688
-0.14283532 -0.04667261 0.06824534
-0.14286742 -0.04636669 0.06814379
-0.14289951 -0.04606078 0.06804224
-0.14293160 -0.04575486 0.06794070
-0.14296369 -0.04544895 0.06783915
-0.14299578 -0.04514303 0.06773761
-0.14302787 -0.04483711 0.06763606
-0.14305997 -0.04453120 0.06753452
-0.14309206 -0.04422528 0.06743297
-0.14312415 -0.04391937 0.06733143
-0.14315624 -0.04361344 0.06722988
-0.14318833 -0.04330753 0.06712833
-0.12362010 -0.19955599 0.14020736
-0.12363216 -0.19917241 0.14028637
-0.12366301 -0.19887831 0.14018875
-0.12369386 -0.19858423 0.14009113
-0.12372471 -0.19829013 0.13999351
-0.12375557 -0.19799604 0.13989589
-0.12378642 -0.19770195 0.13979827
-0.12381727 -0.19740786 0.13970065
-0.12384812 -0.19711377 0.13960303
-0.12387897 -0.19681967 0.13950541
-0.12390982 -0.19652558 0.13940779
-0.12394067 -0.19623149 0.13931016
-0.12397152 -0.19593740 0.13921255
-0.12400238 -0.19564330 0.13911492
-0.12403323 -0.19534921 0.13901730
-0.12406408 -0.19505512 0.13891968
-0.12428004 -0.19299648 0.13823634
-0.12431089 -0.19270238 0.13813872
-0.12434174 -0.19240829 0.13804110
-0.12437259 -0.19211420 0.13794348
-0.12440344 -0.19182011 0.13784586
-0.12443429 -0.19152602 0.13774824
-0.12446514 -0.19123192 0.13765061
-0.12449599 -0.19093783 0.13755299
-0.12452684 -0.19064374 0.13745537
-0.12455770 -0.19034964 0.13735775
-0.12458855 -0.19005555 0.13726013
-0.12461940 -0.18976146 0.13716251
-0.12465025 -0.18946737 0.13706489
-0.12468110 -0.18917328 0.13696727
-0.12471195 -0.18887918 0.13686965
-0.12474280 -0.18858509 0.13677203
-0.12477365 -0.18829100 0.13667441
-0.12480450 -0.18799691 0.13657679
-0.12483536 -0.18770282 0.13647917
-0.12486621 -0.18740873 0.13638155
-0.12489706 -0.18711463 0.13628393
-0.12492791 -0.18682054 0.13618630
-0.12495876 -0.18652645 0.13608868
-0.12618139 -0.18577730 0.12746107
-0.12621273 -0.18547863 0.12736193
-0.12624003 -0.18516290 0.12729967
-0.12625326 -0.18478765 0.12736645
-0.12627652 -0.18445511 0.12734109
-0.12630584 -0.18414812 0.12726046
-0.12633515 -0.18384117 0.12717979
-0.12600837 -0.17695072 0.13257992
-0.12603924 -0.17665644 0.13248223
-0.12607211 -0.17637024 0.13236657
-0.12610691 -0.17609206 0.13223294
-0.12614175 -0.17581385 0.13209926
-0.12618052 -0.17555165 0.13192958
-0.12621935 -0.17528938 0.13175985
-0.12625221 -0.17500298 0.13164410
-0.12634199 -0.17368983 0.13155945
-0.12634706 -0.17329230 0.13169576
-0.12637791 -0.17299821 0.13159813
-0.12640876 -0.17270412 0.13150051
-0.12643961 -0.17241003 0.13140289
-0.12647047 -0.17211594 0.13130527
-0.12650132 -0.17182184 0.13120765
-0.12894972 -0.17121029 0.11354219
-0.12896651 -0.17084993 0.11357643
-0.12898760 -0.17050594 0.11357210
-0.12901299 -0.17017823 0.11352921
-0.12903836 -0.16985060 0.11348633
-0.12906590 -0.16953109 0.11342418
-0.12909555 -0.16921966 0.11334274
-0.12912738 -0.16891627 0.11324203
-0.12915920 -0.16861288 0.11314133
-0.12919321 -0.16831749 0.11302134
-0.12922503 -0.16801409 0.11292063
-0.12925902 -0.16771866 0.11280061
-0.12855578 -0.16181643 0.12052675
-0.12915451 -0.14652992 0.12281228
-0.12918537 -0.14623583 0.12271466
-0.12921622 -0.14594173 0.12261704
-0.12924707 -0.14564764 0.12251942
-0.12927792 -0.14535355 0.12242180
-0.12930877 -0.14505946 0.12232417
-0.12933962 -0.14476537 0.12222655
-0.12937047 -0.14447127 0.12212893
-0.12940132 -0.14417718 0.12203131
-0.13336850 -0.13450817 0.09719476
-0.13340059 -0.13420226 0.09709322
-0.13343268 -0.13389634 0.09699167
-0.13516562 -0.11737685 0.09150821
-0.13519772 -0.11707093 0.09140667
-0.13522981 -0.11676502 0.09130512
-0.13526190 -0.11645910 0.09120357
-0.13529399 -0.11615318 0.09110203
-0.13532608 -0.11584727 0.09100048
-0.13535817 -0.11554135 0.09089894
-0.13539027 -0.11523543 0.09079739
-0.13542236 -0.11492952 0.09069585
-0.13545445 -0.11462360 0.09059430
-0.13571118 -0.11217627 0.08978194
-0.13574327 -0.11187035 0.08968039
-0.13577536 -0.11156444 0.08957885
-0.13562967 -0.10106660 0.09522695
-0.13564448 -0.10072872 0.09526593
-0.13565928 -0.10039103 0.09530489
-0.13568604 -0.10007977 0.09524470
-0.13570801 -0.09975808 0.09522419
-0.13573236 -0.09944172 0.09518386
-0.13576150 -0.09913586 0.09510387
-0.13580024 -0.09885082 0.09494458
-0.13583658 -0.09856053 0.09480509
-0.13685448 -0.09665960 0.08817958
-0.13688141 -0.09634531 0.08811932
-0.13691330 -0.09604136 0.08801843
-0.13693529 -0.09571687 0.08799883
-0.13696226 -0.09540272 0.08793861
-0.13699905 -0.09510906 0.08779707
-0.13815686 -0.08637293 0.08312957
-0.13824687 -0.08508255 0.08303354
-0.13826617 -0.08475431 0.08303526
-0.13829813 -0.08444968 0.08293414
-0.14046073 -0.06690064 0.07475319
-0.14049282 -0.06659471 0.07465164
-0.14052491 -0.06628880 0.07455010
-0.14055700 -0.06598288 0.07444855
-0.14058909 -0.06567697 0.07434701
-0.14062119 -0.06537105 0.07424546
-0.14065328 -0.06506513 0.07414391
-0.14068537 -0.06475922 0.07404237
-0.14071746 -0.06445330 0.07394082
-0.14074955 -0.06414738 0.07383928
-0.14078164 -0.06384147 0.07373773
-0.14081374 -0.06353555 0.07363619
-0.14084583 -0.06322964 0.07353464
-0.14087792 -0.06292372 0.07343310
-0.14091001 -0.06261780 0.07333155
-0.14094210 -0.06231189 0.07323000
-0.14097419 -0.06200597 0.07312846
-0.14100628 -0.06170006 0.07302691
-0.14103838 -0.06139413 0.07292537
-0.14107047 -0.06108822 0.07282382
-0.14110256 -0.06078230 0.07272228
-0.14113465 -0.06047639 0.07262073
-0.14116674 -0.06017047 0.07251918
-0.14119883 -0.05986455 0.07241764
-0.14123093 -0.05955864 0.07231609
-0.14126302 -0.05925272 0.07221455
-0.14129511 -0.05894680 0.07211300
-0.14132720 -0.05864089 0.07201146
-0.14135929 -0.05833497 0.07190991
-0.14139138 -0.05802906 0.07180837
-0.14142348 -0.05772314 0.07170682
-0.14145557 -0.05741722 0.07160527
-0.14148766 -0.05711131 0.07150373
-0.14151975 -0.05680539 0.07140218
-0.14155184 -0.05649947 0.07130064
-0.14158393 -0.05619355 0.07119909
-0.14161602 -0.05588764 0.07109755
-0.14164812 -0.05558173 0.07099600
-0.14168021 -0.05527580 0.07089445
-0.14171230 -0.05496989 0.07079291
-0.14174439 -0.05466397 0.07069136
-0.14177648 -0.05435806 0.07058982
-0.14180857 -0.05405214 0.07048827
-0.14184067 -0.05374622 0.07038673
-0.14187276 -0.05344031 0.07028518
-0.14190485 -0.05313439 0.07018364
-0.14193694 -0.05282848 0.07008209
-0.14196903 -0.05252256 0.06998054
-0.14200112 -0.05221664 0.06987900
-0.14203321 -0.05191073 0.06977745
-0.14206531 -0.05160481 0.06967591
-0.14209740 -0.05129889 0.06957436
-0.14212949 -0.05099298 0.06947282
