ply
format ascii 1.0
element vertex 1451
property float x
property float y
property float z
end_header
0.06797938 0.03099478 1.14510808
0.06797048 0.03099725 1.14516733
0.06796158 0.03099973 1.14522658
0.06795269 0.03100220 1.14528582
0.06794379 0.03100467 1.14534507
0.06793489 0.03100714 1.14540432
0.06792600 0.03100962 1.14546357
0.06789041 0.03101951 1.14570055
0.06788151 0.03102198 1.14575980
0.06787261 0.03102446 1.14581911
0.06743664 0.03114563 1.14872233
0.06742774 0.03114810 1.14878157
0.06741884 0.03115058 1.14884082
0.06740995 0.03115305 1.14890007
0.06740105 0.03115552 1.14895931
0.06739215 0.03115799 1.14901856
0.06738326 0.03116047 1.14907781
0.06737436 0.03116294 1.14913705
0.06736546 0.03116541 1.14919630
0.06735657 0.03116789 1.14925555
0.06734767 0.03117036 1.14931480
0.06733877 0.03117283 1.14937404
0.06732988 0.03117530 1.14943329
0.06732098 0.03117778 1.14949254
0.06731208 0.03118025 1.14955178
0.06730318 0.03118272 1.14961103
0.06729428 0.03118520 1.14967034
0.06689390 0.03129648 1.15233657
0.06688500 0.03129895 1.15239581
0.06687610 0.03130143 1.15245506
0.06686721 0.03130390 1.15251431
0.06683162 0.03131379 1.15275130
0.06682272 0.03131626 1.15281054
0.06681383 0.03131874 1.15286979
0.06680493 0.03132121 1.15292904
0.06679603 0.03132368 1.15298828
0.07203969 0.02985697 1.11698900
0.07203082 0.02985944 1.11704807
0.07202195 0.02986190 1.11710714
0.07201309 0.02986436 1.11716615
0.07200307 0.02986753 1.11725783
0.07193684 0.02988731 1.11778835
0.07192851 0.02988944 1.11783207
0.07192026 0.02989154 1.11787382
0.07191139 0.02989400 1.11793289
0.07092333 0.03018931 1.12586547
0.07087684 0.03020287 1.12621643
0.07086794 0.03020534 1.12627568
0.07085904 0.03020782 1.12633493
0.07085014 0.03021029 1.12639423
0.07084124 0.03021276 1.12645348
0.07083234 0.03021524 1.12651273
0.07082345 0.03021771 1.12657197
0.07081455 0.03022018 1.12663122
0.07080565 0.03022265 1.12669047
0.07079676 0.03022513 1.12674971
0.07078786 0.03022760 1.12680896
0.07077896 0.03023007 1.12686821
0.07077007 0.03023255 1.12692746
0.07076117 0.03023502 1.12698670
0.07075227 0.03023749 1.12704595
0.07074337 0.03023996 1.12710520
0.07073448 0.03024244 1.12716444
0.07072558 0.03024491 1.12722369
0.07071668 0.03024738 1.12728294
0.07070779 0.03024986 1.12734218
0.07069889 0.03025233 1.12740143
0.07068999 0.03025480 1.12746068
0.07068110 0.03025727 1.12751993
0.07038748 0.03033888 1.12947519
0.07037858 0.03034136 1.12953444
0.07036969 0.03034383 1.12959369
0.07036079 0.03034630 1.12965293
0.07035189 0.03034877 1.12971218
0.07034299 0.03035125 1.12977143
0.07033410 0.03035372 1.12983068
0.07029851 0.03036361 1.13006766
0.07028961 0.03036608 1.13012691
0.07028072 0.03036856 1.13018616
0.07027182 0.03037103 1.13024540
0.07026291 0.03037350 1.13030471
0.07025402 0.03037598 1.13036396
0.07024512 0.03037845 1.13042320
0.07023622 0.03038092 1.13048245
0.07020063 0.03039081 1.13071944
0.07019174 0.03039329 1.13077869
0.07018284 0.03039576 1.13083793
0.07017394 0.03039823 1.13089718
0.07016505 0.03040071 1.13095643
0.07015615 0.03040318 1.13101567
0.07014725 0.03040565 1.13107492
0.07005827 0.03043038 1.13166745
0.06983584 0.03049221 1.13314868
0.06982695 0.03049468 1.13320793
0.06981805 0.03049715 1.13326718
0.06980915 0.03049962 1.13332642
0.06980025 0.03050210 1.13338567
0.06979136 0.03050457 1.13344492
0.06956893 0.03056639 1.13492615
0.06956003 0.03056887 1.13498540
0.06955113 0.03057134 1.13504464
0.06810086 0.03097443 1.14470237
0.06809196 0.03097690 1.14476162
0.06808307 0.03097938 1.14482087
0.06807417 0.03098185 1.14488011
0.06802968 0.03099421 1.14517635
0.06802079 0.03099669 1.14523559
0.06801189 0.03099916 1.14529484
0.06800299 0.03100163 1.14535409
0.06799410 0.03100410 1.14541334
0.06798520 0.03100658 1.14547258
0.06794961 0.03101647 1.14570957
0.06794071 0.03101894 1.14576882
0.06793181 0.03102142 1.14582812
0.06792291 0.03102389 1.14588737
0.06789622 0.03103131 1.14606511
0.06788732 0.03103378 1.14612436
0.06748694 0.03114506 1.14879059
0.06747805 0.03114754 1.14884984
0.06746915 0.03115001 1.14890908
0.06746025 0.03115248 1.14896833
0.06745136 0.03115495 1.14902758
0.06744246 0.03115743 1.14908682
0.06743356 0.03115990 1.14914607
0.06742467 0.03116237 1.14920532
0.06741577 0.03116485 1.14926457
0.06740687 0.03116732 1.14932381
0.06739797 0.03116979 1.14938306
0.06738908 0.03117226 1.14944231
0.06738018 0.03117474 1.14950155
0.06737128 0.03117721 1.14956080
0.06736239 0.03117968 1.14962005
0.06735348 0.03118216 1.14967935
0.06695310 0.03129344 1.15234558
0.06694420 0.03129591 1.15240483
0.06693531 0.03129839 1.15246408
0.06692641 0.03130086 1.15252333
0.06691751 0.03130333 1.15258257
0.06689082 0.03131075 1.15276031
0.06688193 0.03131322 1.15281956
0.06687303 0.03131570 1.15287881
0.06686413 0.03131817 1.15293805
0.06685523 0.03132064 1.15299730
0.07209870 0.02985394 1.11699798
0.07208983 0.02985641 1.11705705
0.07208096 0.02985887 1.11711612
0.07207209 0.02986134 1.11717513
0.07206262 0.02986417 1.11725147
0.07205327 0.02986693 1.11732397
0.07199593 0.02988424 1.11779542
0.07198754 0.02988641 1.11784106
0.07197921 0.02988855 1.11788479
0.07197048 0.02989093 1.11793996
0.07193021 0.02990077 1.11811996
0.07098282 0.03018611 1.12586670
0.07094494 0.03019736 1.12616620
0.07093605 0.03019983 1.12622545
0.07092715 0.03020230 1.12628470
0.07091825 0.03020477 1.12634395
0.07090935 0.03020725 1.12640325
0.07090045 0.03020972 1.12646250
0.07089155 0.03021220 1.12652175
0.07088266 0.03021467 1.12658099
0.07087376 0.03021714 1.12664024
0.07086486 0.03021961 1.12669949
0.07085597 0.03022209 1.12675873
0.07084707 0.03022456 1.12681798
0.07083817 0.03022703 1.12687723
0.07082928 0.03022951 1.12693647
0.07082038 0.03023198 1.12699572
0.07081148 0.03023445 1.12705497
0.07080258 0.03023692 1.12711421
0.07079369 0.03023940 1.12717346
0.07078479 0.03024187 1.12723271
0.07077589 0.03024434 1.12729196
0.07076700 0.03024682 1.12735120
0.07075810 0.03024929 1.12741045
0.07074920 0.03025176 1.12746970
0.07074031 0.03025423 1.12752894
0.07044669 0.03033584 1.12948421
0.07043779 0.03033832 1.12954346
0.07042890 0.03034079 1.12960271
0.07042000 0.03034326 1.12966195
0.07041110 0.03034573 1.12972120
0.07040220 0.03034821 1.12978045
0.07039331 0.03035068 1.12983969
0.07035772 0.03036057 1.13007668
0.07034882 0.03036304 1.13013593
0.07033993 0.03036552 1.13019518
0.07033103 0.03036799 1.13025442
0.07032212 0.03037046 1.13031373
0.07031323 0.03037294 1.13037298
0.07030433 0.03037541 1.13043222
0.07029543 0.03037788 1.13049147
0.07025095 0.03039025 1.13078770
0.07024205 0.03039272 1.13084695
0.07023315 0.03039519 1.13090620
0.07022426 0.03039767 1.13096544
0.07021536 0.03040014 1.13102469
0.07020646 0.03040261 1.13108394
0.06988616 0.03049164 1.13321695
0.06987726 0.03049411 1.13327619
0.06986836 0.03049658 1.13333544
0.06985946 0.03049906 1.13339469
0.06985057 0.03050153 1.13345394
0.06962814 0.03056335 1.13493517
0.06961924 0.03056583 1.13499442
0.06961034 0.03056830 1.13505366
0.06816007 0.03097139 1.14471139
0.06815117 0.03097386 1.14477064
0.06814228 0.03097634 1.14482988
0.06813338 0.03097881 1.14488913
0.06812448 0.03098128 1.14494838
0.06808000 0.03099364 1.14524461
0.06807110 0.03099612 1.14530386
0.06806220 0.03099859 1.14536311
0.06805331 0.03100106 1.14542235
0.06804441 0.03100354 1.14548160
0.06803551 0.03100601 1.14554085
0.06800882 0.03101343 1.14571859
0.06799992 0.03101590 1.14577784
0.06799102 0.03101838 1.14583714
0.06798212 0.03102085 1.14589639
0.06795543 0.03102827 1.14607413
0.06794653 0.03103074 1.14613338
0.06793764 0.03103321 1.14619262
0.06754615 0.03114202 1.14879961
0.06753726 0.03114450 1.14885885
0.06752836 0.03114697 1.14891810
0.06751946 0.03114944 1.14897735
0.06751057 0.03115191 1.14903660
0.06750167 0.03115439 1.14909584
0.06749277 0.03115686 1.14915509
0.06748388 0.03115933 1.14921434
0.06747498 0.03116180 1.14927358
0.06746608 0.03116428 1.14933283
0.06745718 0.03116675 1.14939208
0.06744829 0.03116922 1.14945132
0.06743939 0.03117170 1.14951057
0.06743049 0.03117417 1.14956982
0.06742160 0.03117664 1.14962907
0.06741269 0.03117912 1.14968837
0.06701231 0.03129040 1.15235460
0.06700341 0.03129287 1.15241385
0.06699452 0.03129535 1.15247310
0.06698562 0.03129782 1.15253234
0.06697672 0.03130029 1.15259159
0.06695003 0.03130771 1.15276933
0.06694114 0.03131018 1.15282858
0.06693224 0.03131265 1.15288783
0.06692334 0.03131513 1.15294707
0.06691444 0.03131760 1.15300632
0.07215771 0.02985091 1.11700697
0.07214884 0.02985338 1.11706604
0.07213997 0.02985584 1.11712511
0.07213110 0.02985831 1.11718412
0.07212162 0.02986114 1.11726046
0.07211228 0.02986390 1.11733296
0.07205495 0.02988121 1.11780441
0.07204655 0.02988338 1.11785005
0.07203815 0.02988556 1.11789569
0.07202936 0.02988798 1.11795279
0.07199809 0.02989527 1.11806988
0.07198922 0.02989774 1.11812895
0.07198035 0.02990021 1.11818802
0.07105091 0.03018059 1.12581647
0.07104244 0.03018281 1.12586397
0.07103355 0.03018528 1.12592321
0.07099525 0.03019679 1.12623447
0.07098635 0.03019926 1.12629372
0.07097746 0.03020173 1.12635296
0.07096855 0.03020421 1.12641227
0.07095965 0.03020668 1.12647152
0.07095076 0.03020916 1.12653076
0.07094186 0.03021163 1.12659001
0.07093296 0.03021410 1.12664926
0.07092407 0.03021657 1.12670850
0.07091517 0.03021905 1.12676775
0.07090627 0.03022152 1.12682700
0.07089737 0.03022399 1.12688624
0.07088848 0.03022647 1.12694549
0.07087958 0.03022894 1.12700474
0.07087068 0.03023141 1.12706399
0.07086179 0.03023388 1.12712323
0.07085289 0.03023636 1.12718248
0.07084399 0.03023883 1.12724173
0.07083510 0.03024130 1.12730097
0.07082620 0.03024378 1.12736022
0.07081730 0.03024625 1.12741947
0.07080841 0.03024872 1.12747871
0.07079951 0.03025119 1.12753796
0.07049699 0.03033528 1.12955248
0.07048810 0.03033775 1.12961172
0.07047920 0.03034022 1.12967097
0.07047030 0.03034269 1.12973022
0.07046141 0.03034517 1.12978946
0.07045251 0.03034764 1.12984871
0.07040803 0.03036000 1.13014495
0.07039913 0.03036248 1.13020419
0.07039023 0.03036495 1.13026344
0.07038133 0.03036742 1.13032275
0.07037243 0.03036990 1.13038199
0.07036353 0.03037237 1.13044124
0.07030125 0.03038968 1.13085597
0.07029236 0.03039215 1.13091521
0.07028346 0.03039463 1.13097446
0.07027456 0.03039710 1.13103371
0.06992756 0.03049354 1.13334446
0.06822817 0.03096588 1.14466116
0.06821927 0.03096835 1.14472041
0.06821037 0.03097082 1.14477965
0.06820148 0.03097330 1.14483890
0.06819258 0.03097577 1.14489815
0.06818368 0.03097824 1.14495740
0.06817479 0.03098071 1.14501664
0.06813920 0.03099060 1.14525363
0.06813030 0.03099308 1.14531288
0.06812141 0.03099555 1.14537212
0.06811251 0.03099802 1.14543137
0.06810361 0.03100050 1.14549062
0.06809471 0.03100297 1.14554986
0.06808582 0.03100544 1.14560911
0.06807692 0.03100791 1.14566836
0.06806802 0.03101039 1.14572761
0.06805913 0.03101286 1.14578685
0.06805022 0.03101534 1.14584616
0.06804132 0.03101781 1.14590541
0.06803243 0.03102028 1.14596465
0.06802353 0.03102275 1.14602390
0.06801463 0.03102523 1.14608315
0.06800574 0.03102770 1.14614239
0.06799684 0.03103017 1.14620164
0.06798794 0.03103265 1.14626089
0.06760536 0.03113898 1.14880863
0.06759646 0.03114146 1.14886787
0.06758756 0.03114393 1.14892712
0.06757867 0.03114640 1.14898637
0.06756977 0.03114887 1.14904561
0.06756087 0.03115135 1.14910486
0.06755197 0.03115382 1.14916411
0.06754308 0.03115629 1.14922335
0.06753418 0.03115876 1.14928260
0.06752528 0.03116124 1.14934185
0.06751639 0.03116371 1.14940109
0.06750749 0.03116618 1.14946034
0.06749859 0.03116866 1.14951959
0.06748970 0.03117113 1.14957884
0.06748080 0.03117360 1.14963808
0.06747189 0.03117608 1.14969739
0.06708041 0.03128489 1.15230437
0.06707151 0.03128736 1.15236362
0.06706262 0.03128983 1.15242287
0.06705372 0.03129231 1.15248211
0.06701813 0.03130220 1.15271910
0.06700923 0.03130467 1.15277835
0.06700034 0.03130714 1.15283760
0.06699144 0.03130961 1.15289684
0.06698254 0.03131209 1.15295609
0.06697365 0.03131456 1.15301534
0.07221671 0.02984788 1.11701596
0.07220784 0.02985035 1.11707503
0.07219897 0.02985281 1.11713410
0.07219011 0.02985528 1.11719311
0.07218017 0.02985840 1.11728288
0.07211390 0.02987822 1.11781532
0.07210544 0.02988043 1.11786288
0.07209670 0.02988282 1.11791811
0.07208824 0.02988503 1.11796567
0.07205710 0.02989224 1.11807887
0.07204823 0.02989471 1.11813794
0.07203936 0.02989718 1.11819701
0.07111011 0.03017755 1.12582548
0.07110164 0.03017977 1.12587298
0.07109274 0.03018224 1.12593223
0.07105445 0.03019375 1.12624349
0.07104556 0.03019622 1.12630273
0.07103666 0.03019869 1.12636198
0.07102775 0.03020117 1.12642129
0.07101886 0.03020364 1.12648053
0.07100996 0.03020612 1.12653978
0.07100106 0.03020859 1.12659903
0.07099216 0.03021106 1.12665827
0.07098327 0.03021353 1.12671752
0.07097437 0.03021601 1.12677677
0.07096547 0.03021848 1.12683601
0.07095658 0.03022095 1.12689526
0.07094768 0.03022343 1.12695451
0.07093878 0.03022590 1.12701376
0.07091209 0.03023332 1.12719150
0.07090320 0.03023579 1.12725074
0.07089430 0.03023826 1.12730999
0.07088540 0.03024074 1.12736924
0.07087650 0.03024321 1.12742848
0.07045833 0.03035944 1.13021321
0.07044943 0.03036191 1.13027246
0.07044053 0.03036438 1.13033176
0.07043163 0.03036686 1.13039101
0.07035156 0.03038911 1.13092423
0.07034266 0.03039159 1.13098348
0.06827847 0.03096531 1.14472942
0.06826958 0.03096778 1.14478867
0.06826068 0.03097026 1.14484792
0.06825178 0.03097273 1.14490717
0.06824289 0.03097520 1.14496641
0.06823399 0.03097767 1.14502566
0.06819840 0.03098757 1.14526265
0.06818950 0.03099004 1.14532189
0.06818061 0.03099251 1.14538114
0.06817171 0.03099498 1.14544039
0.06816281 0.03099746 1.14549964
0.06815392 0.03099993 1.14555888
0.06811833 0.03100982 1.14579587
0.06810942 0.03101230 1.14585518
0.06810053 0.03101477 1.14591442
0.06809163 0.03101724 1.14597367
0.06808273 0.03101971 1.14603292
0.06807384 0.03102219 1.14609216
0.06806494 0.03102466 1.14615141
0.06805604 0.03102713 1.14621066
0.06804714 0.03102961 1.14626990
0.06766456 0.03113594 1.14881764
0.06765566 0.03113842 1.14887689
0.06764676 0.03114089 1.14893614
0.06763787 0.03114336 1.14899538
0.06762897 0.03114583 1.14905463
0.06762007 0.03114831 1.14911388
0.06761118 0.03115078 1.14917312
0.06760228 0.03115325 1.14923237
0.06759338 0.03115572 1.14929162
0.06758449 0.03115820 1.14935086
0.06757559 0.03116067 1.14941011
0.06756669 0.03116314 1.14946936
0.06755780 0.03116562 1.14952861
0.06754890 0.03116809 1.14958785
0.06754000 0.03117056 1.14964710
0.06753110 0.03117304 1.14970641
0.06752220 0.03117551 1.14976565
0.06713072 0.03128432 1.15237264
0.06712182 0.03128679 1.15243188
0.06707733 0.03129916 1.15272812
0.06706844 0.03130163 1.15278737
0.06705954 0.03130410 1.15284661
0.06705064 0.03130658 1.15290586
0.06704175 0.03130905 1.15296511
0.06703285 0.03131152 1.15302435
0.07227571 0.02984485 1.11702494
0.07226684 0.02984732 1.11708401
0.07225797 0.02984978 1.11714308
0.07224911 0.02985225 1.11720210
0.07223884 0.02985558 1.11730146
0.07216406 0.02987765 1.11788338
0.07212496 0.02988675 1.11802884
0.07211610 0.02988922 1.11808786
0.07210723 0.02989168 1.11814693
0.07209836 0.02989415 1.11820600
0.07116938 0.03017447 1.12583252
0.07116090 0.03017669 1.12588008
0.07115201 0.03017916 1.12593933
0.07111366 0.03019071 1.12625250
0.07110476 0.03019318 1.12631175
0.07109587 0.03019565 1.12637100
0.07108696 0.03019813 1.12643030
0.07107807 0.03020060 1.12648955
0.07106917 0.03020308 1.12654880
0.07106027 0.03020555 1.12660804
0.07105137 0.03020802 1.12666729
0.07104248 0.03021049 1.12672654
0.07103358 0.03021297 1.12678579
0.07102468 0.03021544 1.12684503
0.07101579 0.03021791 1.12690428
0.07100689 0.03022039 1.12696353
0.07099799 0.03022286 1.12702277
0.07098910 0.03022533 1.12708202
0.07098020 0.03022780 1.12714127
0.07097130 0.03023028 1.12720051
0.07096241 0.03023275 1.12725976
0.07095351 0.03023522 1.12731901
0.07094461 0.03023770 1.12737826
0.06832879 0.03096474 1.14479769
0.06831989 0.03096721 1.14485694
0.06831099 0.03096969 1.14491618
0.06830210 0.03097216 1.14497543
0.06829320 0.03097463 1.14503468
0.06825761 0.03098452 1.14527167
0.06824871 0.03098700 1.14533091
0.06823982 0.03098947 1.14539016
0.06823092 0.03099194 1.14544941
0.06822202 0.03099442 1.14550865
0.06821313 0.03099689 1.14556790
0.06816863 0.03100926 1.14586419
0.06815974 0.03101173 1.14592344
0.06815084 0.03101420 1.14598269
0.06814194 0.03101667 1.14604193
0.06813305 0.03101915 1.14610118
0.06812415 0.03102162 1.14616043
0.06811525 0.03102409 1.14621968
0.06810635 0.03102657 1.14627892
0.06809746 0.03102904 1.14633817
0.06771487 0.03113537 1.14888591
0.06770597 0.03113785 1.14894515
0.06769708 0.03114032 1.14900440
0.06768818 0.03114279 1.14906365
0.06767928 0.03114527 1.14912290
0.06767039 0.03114774 1.14918214
0.06766149 0.03115021 1.14924139
0.06765259 0.03115268 1.14930064
0.06764370 0.03115516 1.14935988
0.06763480 0.03115763 1.14941913
0.06762590 0.03116010 1.14947838
0.06761701 0.03116258 1.14953762
0.06760811 0.03116505 1.14959687
0.06759921 0.03116752 1.14965612
0.06759031 0.03117000 1.14971542
0.06758141 0.03117247 1.14977467
0.06712765 0.03129859 1.15279638
0.06711875 0.03130106 1.15285563
0.06710985 0.03130353 1.15291488
0.06710096 0.03130601 1.15297413
0.06709206 0.03130848 1.15303337
0.07233473 0.02984182 1.11703393
0.07232586 0.02984429 1.11709300
0.07231698 0.02984675 1.11715207
0.07230812 0.02984922 1.11721108
0.07229785 0.02985255 1.11731045
0.07219217 0.02988167 1.11799801
0.07218397 0.02988372 1.11803783
0.07217511 0.02988618 1.11809684
0.07216624 0.02988865 1.11815591
0.07215737 0.02989112 1.11821498
0.07121968 0.03017390 1.12590079
0.07117286 0.03018767 1.12626152
0.07116397 0.03019014 1.12632077
0.07115507 0.03019261 1.12638002
0.07114616 0.03019509 1.12643932
0.07113727 0.03019756 1.12649857
0.07112837 0.03020004 1.12655781
0.07111947 0.03020251 1.12661706
0.07111058 0.03020498 1.12667631
0.07110168 0.03020745 1.12673556
0.07109278 0.03020993 1.12679480
0.07108389 0.03021240 1.12685405
0.07107499 0.03021487 1.12691330
0.07106609 0.03021735 1.12697254
0.07105720 0.03021982 1.12703179
0.07104830 0.03022229 1.12709104
0.07103940 0.03022476 1.12715028
0.07103050 0.03022724 1.12720953
0.07102161 0.03022971 1.12726878
0.07101271 0.03023218 1.12732803
0.07100381 0.03023466 1.12738727
0.06831681 0.03098148 1.14528068
0.06830792 0.03098396 1.14533993
0.06829902 0.03098643 1.14539918
0.06829012 0.03098890 1.14545842
0.06828123 0.03099138 1.14551767
0.06821894 0.03100869 1.14593246
0.06821004 0.03101116 1.14599171
0.06820114 0.03101363 1.14605095
0.06819225 0.03101611 1.14611020
0.06818335 0.03101858 1.14616945
0.06817445 0.03102105 1.14622869
0.06816556 0.03102353 1.14628794
0.06815666 0.03102600 1.14634719
0.06814776 0.03102847 1.14640643
0.06776518 0.03113481 1.14895417
0.06775628 0.03113728 1.14901342
0.06774738 0.03113975 1.14907267
0.06773849 0.03114223 1.14913191
0.06772959 0.03114470 1.14919116
0.06772069 0.03114717 1.14925041
0.06771180 0.03114964 1.14930965
0.06770290 0.03115212 1.14936890
0.06769400 0.03115459 1.14942815
0.06768510 0.03115706 1.14948739
0.06767621 0.03115954 1.14954664
0.06766731 0.03116201 1.14960589
0.06765841 0.03116448 1.14966514
0.06764951 0.03116696 1.14972444
0.06764061 0.03116943 1.14978369
0.06718685 0.03129555 1.15280540
0.06717795 0.03129802 1.15286465
0.06716906 0.03130049 1.15292390
0.06716016 0.03130297 1.15298314
0.06715126 0.03130544 1.15304239
0.07239373 0.02983879 1.11704292
0.07238486 0.02984126 1.11710199
0.07237599 0.02984372 1.11716106
0.07236713 0.02984619 1.11722007
0.07235686 0.02984952 1.11731943
0.07226004 0.02987618 1.11794792
0.07225185 0.02987823 1.11798775
0.07224298 0.02988069 1.11804682
0.07223412 0.02988316 1.11810583
0.07222524 0.02988562 1.11816490
0.07221637 0.02988809 1.11822397
0.07122317 0.03018710 1.12632979
0.07121427 0.03018957 1.12638903
0.07120537 0.03019205 1.12644834
0.07116978 0.03020194 1.12668533
0.07116088 0.03020441 1.12674457
0.07115199 0.03020689 1.12680382
0.07114309 0.03020936 1.12686307
0.07113419 0.03021183 1.12692231
0.06837602 0.03097844 1.14528970
0.06836712 0.03098092 1.14534895
0.06835822 0.03098339 1.14540819
0.06834933 0.03098586 1.14546744
0.06834043 0.03098834 1.14552669
0.06827814 0.03100565 1.14594148
0.06826924 0.03100812 1.14600072
0.06826035 0.03101059 1.14605997
0.06825145 0.03101307 1.14611922
0.06824255 0.03101554 1.14617846
0.06823366 0.03101801 1.14623771
0.06822476 0.03102049 1.14629696
0.06821586 0.03102296 1.14635620
0.06820697 0.03102543 1.14641545
0.06819807 0.03102790 1.14647470
0.06818917 0.03103038 1.14653394
0.06818027 0.03103285 1.14659319
0.06817138 0.03103532 1.14665244
0.06777100 0.03114660 1.14931867
0.06776210 0.03114908 1.14937792
0.06775320 0.03115155 1.14943716
0.06774431 0.03115402 1.14949641
0.06773541 0.03115650 1.14955566
0.06772651 0.03115897 1.14961491
0.06771762 0.03116144 1.14967415
0.06770871 0.03116392 1.14973346
0.06769981 0.03116639 1.14979271
0.06769092 0.03116886 1.14985195
0.06724605 0.03129251 1.15281442
0.06723715 0.03129498 1.15287367
0.06722826 0.03129745 1.15293291
0.06721936 0.03129993 1.15299216
0.06721046 0.03130240 1.15305141
0.07245273 0.02983576 1.11705191
0.07244386 0.02983823 1.11711098
0.07243499 0.02984069 1.11717005
0.07242613 0.02984316 1.11722906
0.07231972 0.02987273 1.11793767
0.07231085 0.02987520 1.11799674
0.07230198 0.02987766 1.11805581
0.07229312 0.02988013 1.11811482
0.07228425 0.02988259 1.11817389
0.07227538 0.02988506 1.11823296
0.06844412 0.03097293 1.14523947
0.06843523 0.03097540 1.14529872
0.06842633 0.03097788 1.14535796
0.06841743 0.03098035 1.14541721
0.06840854 0.03098282 1.14547646
0.06839964 0.03098530 1.14553571
0.06835515 0.03099766 1.14583194
0.06834625 0.03100014 1.14589125
0.06833735 0.03100261 1.14595049
0.06832845 0.03100508 1.14600974
0.06831956 0.03100755 1.14606899
0.06831066 0.03101003 1.14612823
0.06830176 0.03101250 1.14618748
0.06829287 0.03101497 1.14624673
0.06828397 0.03101745 1.14630598
0.06827507 0.03101992 1.14636522
0.06826618 0.03102239 1.14642447
0.06825728 0.03102486 1.14648372
0.06824838 0.03102734 1.14654296
0.06823948 0.03102981 1.14660221
0.06823059 0.03103228 1.14666146
0.06822169 0.03103475 1.14672070
0.06782131 0.03114604 1.14938694
0.06781241 0.03114851 1.14944618
0.06780352 0.03115098 1.14950543
0.06779462 0.03115346 1.14956468
0.06778572 0.03115593 1.14962392
0.06777683 0.03115840 1.14968317
0.06776792 0.03116088 1.14974248
0.06775902 0.03116335 1.14980172
0.06775013 0.03116582 1.14986097
0.06731416 0.03128700 1.15276419
0.06730526 0.03128947 1.15282344
0.06729636 0.03129194 1.15288268
0.06728747 0.03129441 1.15294193
0.06727857 0.03129689 1.15300118
0.06726967 0.03129936 1.15306042
0.07251174 0.02983273 1.11706089
0.07250287 0.02983520 1.11711996
0.07249400 0.02983766 1.11717903
0.07248514 0.02984013 1.11723805
0.07247482 0.02984350 1.11733933
0.07237873 0.02986970 1.11794665
0.07236986 0.02987217 1.11800572
0.07236099 0.02987463 1.11806479
0.07235213 0.02987710 1.11812381
0.07234326 0.02987956 1.11818288
0.07233439 0.02988203 1.11824195
0.06856560 0.03095258 1.14483376
0.06852112 0.03096495 1.14512999
0.06851222 0.03096742 1.14518924
0.06850333 0.03096989 1.14524849
0.06849443 0.03097236 1.14530774
0.06848553 0.03097484 1.14536698
0.06847663 0.03097731 1.14542623
0.06846774 0.03097978 1.14548548
0.06845884 0.03098226 1.14554472
0.06844994 0.03098473 1.14560397
0.06843215 0.03098967 1.14572246
0.06842325 0.03099215 1.14578171
0.06841436 0.03099462 1.14584096
0.06840545 0.03099710 1.14590026
0.06839655 0.03099957 1.14595951
0.06838766 0.03100204 1.14601876
0.06837876 0.03100451 1.14607800
0.06836986 0.03100699 1.14613725
0.06836097 0.03100946 1.14619650
0.06835207 0.03101193 1.14625575
0.06834317 0.03101441 1.14631499
0.06833427 0.03101688 1.14637424
0.06832538 0.03101935 1.14643349
0.06831648 0.03102182 1.14649273
0.06830758 0.03102430 1.14655198
0.06829869 0.03102677 1.14661123
0.06828979 0.03102924 1.14667047
0.06828089 0.03103171 1.14672972
0.06827200 0.03103419 1.14678897
0.06788051 0.03114300 1.14939595
0.06787162 0.03114547 1.14945520
0.06786272 0.03114794 1.14951445
0.06785382 0.03115042 1.14957369
0.06784493 0.03115289 1.14963294
0.06783603 0.03115536 1.14969219
0.06782712 0.03115784 1.14975149
0.06781823 0.03116031 1.14981074
0.06780933 0.03116278 1.14986999
0.06780043 0.03116526 1.14992923
0.06779153 0.03116773 1.14998848
0.06736446 0.03128643 1.15283245
0.06735557 0.03128890 1.15289170
0.06734667 0.03129137 1.15295095
0.06733777 0.03129385 1.15301019
0.06732888 0.03129632 1.15306944
0.07257075 0.02982970 1.11706988
0.07256188 0.02983217 1.11712895
0.07255301 0.02983463 1.11718802
0.07254415 0.02983710 1.11724703
0.07253475 0.02983989 1.11732145
0.07243774 0.02986667 1.11795564
0.07242887 0.02986914 1.11801471
0.07242000 0.02987160 1.11807378
0.07241113 0.02987407 1.11813279
0.07240226 0.02987653 1.11819186
0.07239339 0.02987900 1.11825093
0.07238453 0.02988146 1.11830994
0.06864260 0.03094460 1.14472428
0.06863370 0.03094707 1.14478353
0.06862481 0.03094954 1.14484278
0.06861591 0.03095201 1.14490202
0.06860701 0.03095449 1.14496127
0.06858922 0.03095943 1.14507976
0.06858032 0.03096191 1.14513901
0.06857142 0.03096438 1.14519826
0.06856253 0.03096685 1.14525751
0.06855363 0.03096932 1.14531675
0.06854473 0.03097180 1.14537600
0.06853584 0.03097427 1.14543525
0.06852694 0.03097674 1.14549449
0.06851804 0.03097922 1.14555374
0.06850915 0.03098169 1.14561299
0.06850025 0.03098416 1.14567223
0.06849135 0.03098663 1.14573148
0.06848246 0.03098911 1.14579073
0.06847356 0.03099158 1.14584997
0.06846465 0.03099406 1.14590928
0.06845576 0.03099653 1.14596853
0.06844686 0.03099900 1.14602777
0.06843796 0.03100147 1.14608702
0.06842906 0.03100395 1.14614627
0.06842017 0.03100642 1.14620552
0.06841127 0.03100889 1.14626476
0.06840237 0.03101137 1.14632401
0.06839348 0.03101384 1.14638326
0.06838458 0.03101631 1.14644250
0.06837568 0.03101878 1.14650175
0.06836679 0.03102126 1.14656100
0.06835789 0.03102373 1.14662024
0.06834899 0.03102620 1.14667949
0.06834010 0.03102868 1.14673874
0.06833120 0.03103115 1.14679799
0.06794861 0.03113748 1.14934572
0.06793972 0.03113996 1.14940497
0.06793082 0.03114243 1.14946422
0.06792192 0.03114490 1.14952346
0.06791302 0.03114738 1.14958271
0.06790413 0.03114985 1.14964196
0.06789523 0.03115232 1.14970120
0.06788632 0.03115480 1.14976051
0.06787743 0.03115727 1.14981976
0.06786853 0.03115974 1.14987900
0.06785963 0.03116222 1.14993825
0.06785074 0.03116469 1.14999750
0.06784184 0.03116716 1.15005675
0.06759608 0.03121237 1.15019748
0.06741477 0.03128586 1.15290072
0.06740587 0.03128833 1.15295996
0.06739698 0.03129081 1.15301921
0.06738808 0.03129328 1.15307846
0.07262976 0.02982667 1.11707887
0.07262089 0.02982914 1.11713794
0.07261202 0.02983160 1.11719701
0.07260316 0.02983407 1.11725602
0.07259429 0.02983653 1.11731509
0.07258488 0.02983933 1.11738951
0.07257602 0.02984179 1.11744852
0.07249675 0.02986364 1.11796463
0.07248788 0.02986611 1.11802370
0.07247901 0.02986857 1.11808277
0.07247015 0.02987104 1.11814178
0.07246127 0.02987350 1.11820085
0.07245240 0.02987597 1.11825992
0.07244354 0.02987843 1.11831893
0.06871071 0.03093908 1.14467405
0.06870181 0.03094156 1.14473330
0.06869291 0.03094403 1.14479255
0.06868402 0.03094650 1.14485179
0.06867512 0.03094897 1.14491104
0.06866622 0.03095145 1.14497029
0.06865733 0.03095392 1.14502954
0.06864843 0.03095639 1.14508878
0.06863953 0.03095887 1.14514803
0.06863063 0.03096134 1.14520728
0.06862174 0.03096381 1.14526652
0.06861284 0.03096628 1.14532577
0.06860394 0.03096876 1.14538502
0.06859505 0.03097123 1.14544426
0.06858615 0.03097370 1.14550351
0.06857725 0.03097618 1.14556276
0.06856836 0.03097865 1.14562201
0.06855946 0.03098112 1.14568125
0.06855056 0.03098359 1.14574050
0.06854167 0.03098607 1.14579975
0.06853277 0.03098854 1.14585899
0.06852386 0.03099102 1.14591830
0.06851497 0.03099349 1.14597755
0.06850607 0.03099596 1.14603679
0.06849717 0.03099843 1.14609604
0.06848827 0.03100091 1.14615529
0.06847938 0.03100338 1.14621453
0.06847048 0.03100585 1.14627378
0.06846158 0.03100832 1.14633303
0.06845269 0.03101080 1.14639227
0.06844379 0.03101327 1.14645152
0.06843489 0.03101574 1.14651077
0.06842600 0.03101822 1.14657002
0.06841710 0.03102069 1.14662926
0.06840820 0.03102316 1.14668851
0.06839931 0.03102563 1.14674776
0.06839041 0.03102811 1.14680700
0.06799893 0.03113692 1.14941399
0.06799003 0.03113939 1.14947324
0.06798113 0.03114186 1.14953248
0.06797223 0.03114434 1.14959173
0.06796334 0.03114681 1.14965098
0.06795444 0.03114928 1.14971022
0.06794553 0.03115176 1.14976953
0.06793664 0.03115423 1.14982878
0.06792774 0.03115670 1.14988802
0.06791884 0.03115917 1.14994727
0.06790995 0.03116165 1.15000652
0.06790105 0.03116412 1.15006576
0.06766396 0.03120688 1.15014740
0.06765509 0.03120934 1.15020647
0.06764622 0.03121181 1.15026554
0.06763736 0.03121427 1.15032455
0.06762849 0.03121674 1.15038362
0.06761961 0.03121920 1.15044269
0.06761075 0.03122166 1.15050170
0.06760188 0.03122413 1.15056077
0.06747398 0.03128282 1.15290974
0.06746508 0.03128529 1.15296898
0.06745619 0.03128777 1.15302823
0.06744729 0.03129024 1.15308748
0.07268876 0.02982364 1.11708786
0.07267989 0.02982611 1.11714693
0.07267102 0.02982857 1.11720600
0.07266216 0.02983104 1.11726501
0.07265329 0.02983350 1.11732408
0.07264442 0.02983597 1.11738315
0.07263556 0.02983843 1.11744216
0.07255575 0.02986061 1.11797362
0.07254688 0.02986308 1.11803269
0.07253801 0.02986554 1.11809176
0.07252915 0.02986801 1.11815077
0.07252028 0.02987047 1.11820984
0.07251141 0.02987294 1.11826891
0.07250255 0.02987540 1.11832792
0.06879661 0.03092862 1.14450527
0.06878771 0.03093110 1.14456452
0.06877881 0.03093357 1.14462382
0.06876991 0.03093604 1.14468307
0.06876101 0.03093852 1.14474232
0.06875212 0.03094099 1.14480156
0.06874322 0.03094346 1.14486081
0.06873432 0.03094593 1.14492006
0.06872542 0.03094841 1.14497931
0.06871653 0.03095088 1.14503855
0.06868094 0.03096077 1.14527554
0.06867204 0.03096324 1.14533479
0.06866315 0.03096572 1.14539403
0.06865425 0.03096819 1.14545328
0.06864535 0.03097066 1.14551253
0.06863646 0.03097314 1.14557178
0.06862756 0.03097561 1.14563102
0.06861866 0.03097808 1.14569027
0.06860976 0.03098055 1.14574952
0.06859197 0.03098550 1.14586801
0.06858306 0.03098798 1.14592732
0.06857417 0.03099045 1.14598656
0.06856527 0.03099292 1.14604581
0.06855637 0.03099539 1.14610506
0.06854748 0.03099787 1.14616430
0.06853858 0.03100034 1.14622355
0.06852968 0.03100281 1.14628280
0.06852079 0.03100528 1.14634204
0.06851189 0.03100776 1.14640129
0.06850299 0.03101023 1.14646054
0.06849410 0.03101270 1.14651979
0.06848520 0.03101518 1.14657903
0.06847630 0.03101765 1.14663828
0.06846740 0.03102012 1.14669753
0.06845851 0.03102259 1.14675677
0.06844961 0.03102507 1.14681602
0.06800474 0.03114872 1.14977855
0.06799584 0.03115119 1.14983779
0.06798694 0.03115366 1.14989704
0.06772296 0.03120385 1.15015638
0.06771409 0.03120631 1.15021545
0.06770522 0.03120878 1.15027452
0.06769636 0.03121124 1.15033353
0.06768749 0.03121371 1.15039260
0.06767862 0.03121617 1.15045168
0.06766976 0.03121863 1.15051069
0.06766089 0.03122110 1.15056976
0.06765202 0.03122356 1.15062883
0.06753318 0.03127978 1.15291875
0.06752428 0.03128225 1.15297800
0.06751539 0.03128473 1.15303725
0.06750649 0.03128720 1.15309649
0.07274777 0.02982061 1.11709684
0.07273890 0.02982308 1.11715591
0.07273003 0.02982554 1.11721498
0.07272116 0.02982801 1.11727399
0.07271229 0.02983047 1.11733306
0.07258815 0.02986498 1.11815975
0.07257928 0.02986744 1.11821882
0.07257041 0.02986991 1.11827790
0.07256155 0.02987237 1.11833691
0.06881133 0.03093795 1.14481058
0.06880243 0.03094042 1.14486983
0.06879353 0.03094289 1.14492908
0.06873125 0.03096020 1.14534381
0.06872236 0.03096268 1.14540305
0.06871346 0.03096515 1.14546230
0.06870456 0.03096762 1.14552155
0.06869566 0.03097010 1.14558079
0.06863338 0.03098741 1.14599558
0.06862448 0.03098988 1.14605483
0.06861558 0.03099235 1.14611408
0.06860669 0.03099483 1.14617332
0.06859779 0.03099730 1.14623257
0.06858889 0.03099977 1.14629182
0.06858000 0.03100224 1.14635106
0.06857110 0.03100472 1.14641031
0.06854441 0.03101214 1.14658805
0.06853551 0.03101461 1.14664730
0.06852661 0.03101708 1.14670655
0.06851772 0.03101955 1.14676579
0.06850882 0.03102203 1.14682504
0.06778197 0.03120082 1.15016537
0.06777309 0.03120328 1.15022444
0.06776422 0.03120575 1.15028351
0.06775536 0.03120821 1.15034252
0.06774649 0.03121068 1.15040159
0.06773762 0.03121314 1.15046066
0.06772876 0.03121560 1.15051967
0.06771989 0.03121807 1.15057874
0.06771102 0.03122053 1.15063781
0.06759239 0.03127674 1.15292777
0.06758349 0.03127921 1.15298702
0.06757460 0.03128169 1.15304627
0.06756570 0.03128416 1.15310551
0.07280678 0.02981758 1.11710583
0.07279791 0.02982005 1.11716490
0.07278904 0.02982251 1.11722397
0.07278018 0.02982498 1.11728298
0.07264716 0.02986195 1.11816874
0.07263829 0.02986441 1.11822781
0.07262942 0.02986688 1.11828688
0.06886163 0.03093738 1.14487885
0.06885273 0.03093985 1.14493809
0.06869258 0.03098437 1.14600460
0.06868368 0.03098684 1.14606385
0.06867479 0.03098931 1.14612309
0.06866589 0.03099179 1.14618234
0.06865699 0.03099426 1.14624159
0.06864810 0.03099673 1.14630083
0.06863920 0.03099920 1.14636008
0.06859471 0.03101157 1.14665632
0.06858582 0.03101404 1.14671556
0.06857692 0.03101651 1.14677481
0.06856802 0.03101899 1.14683406
0.06784098 0.03119779 1.15017436
0.06783211 0.03120025 1.15023343
0.06782324 0.03120272 1.15029250
0.06781437 0.03120518 1.15035151
0.06780550 0.03120765 1.15041058
0.06779663 0.03121011 1.15046965
0.06778777 0.03121257 1.15052866
0.06777890 0.03121504 1.15058773
0.06764270 0.03127617 1.15299604
0.06763380 0.03127865 1.15305528
0.06762490 0.03128112 1.15311453
0.07286578 0.02981455 1.11711482
0.07285691 0.02981702 1.11717389
0.07284804 0.02981948 1.11723296
0.07283918 0.02982195 1.11729197
0.07270617 0.02985892 1.11817773
0.07269730 0.02986138 1.11823680
0.07268843 0.02986385 1.11829587
0.06892083 0.03093434 1.14488786
0.06891194 0.03093681 1.14494711
0.06875178 0.03098133 1.14601362
0.06874289 0.03098380 1.14607286
0.06873399 0.03098627 1.14613211
0.06872509 0.03098875 1.14619136
0.06871619 0.03099122 1.14625060
0.06870730 0.03099369 1.14630985
0.06869840 0.03099616 1.14636910
0.06864502 0.03101100 1.14672458
0.06863612 0.03101347 1.14678383
0.06862723 0.03101595 1.14684307
0.06789998 0.03119476 1.15018334
0.06789111 0.03119722 1.15024241
0.06788224 0.03119969 1.15030148
0.06787338 0.03120215 1.15036050
0.06786451 0.03120462 1.15041957
0.06785564 0.03120708 1.15047864
0.06784678 0.03120954 1.15053765
0.06783791 0.03121201 1.15059672
0.06770190 0.03127313 1.15300505
0.06769300 0.03127561 1.15306430
0.06768411 0.03127808 1.15312355
0.07292479 0.02981152 1.11712380
0.07291592 0.02981399 1.11718287
0.07290704 0.02981645 1.11724195
0.07289818 0.02981892 1.11730096
0.07276517 0.02985589 1.11818672
0.07275630 0.02985835 1.11824579
0.07274743 0.02986082 1.11830486
0.06944271 0.03080271 1.14181586
0.06943381 0.03080518 1.14187511
0.06942492 0.03080765 1.14193436
0.06897115 0.03093377 1.14495613
0.06881099 0.03097829 1.14602263
0.06880210 0.03098076 1.14608188
0.06879320 0.03098323 1.14614113
0.06878430 0.03098571 1.14620037
0.06877540 0.03098818 1.14625962
0.06876651 0.03099065 1.14631887
0.06875761 0.03099312 1.14637812
0.06869533 0.03101043 1.14679284
0.06795898 0.03119173 1.15019233
0.06795011 0.03119419 1.15025140
0.06794124 0.03119666 1.15031047
0.06793238 0.03119912 1.15036948
0.06792351 0.03120159 1.15042855
0.06791464 0.03120405 1.15048762
0.06790578 0.03120651 1.15054664
0.06789691 0.03120898 1.15060571
0.06788804 0.03121145 1.15066478
0.06776111 0.03127009 1.15301407
0.06775221 0.03127257 1.15307332
0.06774332 0.03127504 1.15313257
0.07298380 0.02980849 1.11713279
0.07297493 0.02981096 1.11719186
0.07296606 0.02981342 1.11725093
0.07295719 0.02981589 1.11730994
0.07284191 0.02984793 1.11807762
0.07283304 0.02985039 1.11813669
0.07282418 0.02985286 1.11819570
0.07281531 0.02985532 1.11825477
0.07280644 0.02985779 1.11831384
0.07039164 0.03055237 1.13589995
0.07038275 0.03055485 1.13595919
0.06955529 0.03078483 1.14146940
0.06954640 0.03078730 1.14152865
0.06951081 0.03079719 1.14176563
0.06950191 0.03079967 1.14182488
0.06949302 0.03080214 1.14188413
0.06948412 0.03080461 1.14194337
0.06886130 0.03097772 1.14609090
0.06885240 0.03098019 1.14615014
0.06884350 0.03098267 1.14620939
0.06883461 0.03098514 1.14626864
0.06801800 0.03118870 1.15020132
0.06800912 0.03119116 1.15026039
0.06800025 0.03119363 1.15031946
0.06799139 0.03119609 1.15037847
0.06798252 0.03119856 1.15043754
0.06797365 0.03120102 1.15049661
0.06796479 0.03120348 1.15055562
0.06795592 0.03120595 1.15061469
0.06794705 0.03120842 1.15067376
0.06782921 0.03126458 1.15296384
0.06782031 0.03126705 1.15302309
0.06781141 0.03126953 1.15308234
0.06780252 0.03127200 1.15314158
0.07304280 0.02980546 1.11714178
0.07303393 0.02980793 1.11720085
0.07302506 0.02981039 1.11725992
0.07301620 0.02981286 1.11731893
0.07290092 0.02984490 1.11808661
0.07289205 0.02984736 1.11814568
0.07288319 0.02984983 1.11820469
0.07287432 0.02985229 1.11826376
0.07044195 0.03055181 1.13596821
0.06960560 0.03078426 1.14153766
0.06959670 0.03078674 1.14159691
0.06957891 0.03079168 1.14171540
0.06957001 0.03079415 1.14177465
0.06956111 0.03079663 1.14183390
0.06955222 0.03079910 1.14189314
0.06954332 0.03080157 1.14195239
0.06953442 0.03080405 1.14201164
0.06806708 0.03118873 1.15029574
0.06788841 0.03126154 1.15297286
0.06787951 0.03126401 1.15303211
0.06787062 0.03126649 1.15309135
0.06786172 0.03126896 1.15315060
0.07310181 0.02980243 1.11715077
0.07309294 0.02980490 1.11720984
0.07308407 0.02980736 1.11726891
0.07307521 0.02980983 1.11732792
0.07051005 0.03054629 1.13591798
0.07050116 0.03054877 1.13597723
0.06967371 0.03077875 1.14148743
0.06966481 0.03078122 1.14154668
0.06965591 0.03078369 1.14160593
0.06964702 0.03078617 1.14166517
0.06963812 0.03078864 1.14172442
0.06962922 0.03079111 1.14178367
0.06962032 0.03079359 1.14184292
0.06961143 0.03079606 1.14190216
0.06960253 0.03079853 1.14196141
0.06959363 0.03080100 1.14202066
0.06958473 0.03080348 1.14207996
0.06793872 0.03126097 1.15304112
0.06792983 0.03126345 1.15310037
0.06792093 0.03126592 1.15315962
0.07316082 0.02979940 1.11715975
0.07315195 0.02980187 1.11721882
0.07314307 0.02980433 1.11727789
0.07313421 0.02980680 1.11733691
0.07057815 0.03054078 1.13586775
0.07056926 0.03054325 1.13592700
0.07056036 0.03054573 1.13598625
0.07055146 0.03054820 1.13604549
0.07053367 0.03055314 1.13616399
0.06973291 0.03077571 1.14149645
0.06972401 0.03077818 1.14155570
0.06971511 0.03078066 1.14161495
0.06970622 0.03078313 1.14167419
0.06969732 0.03078560 1.14173344
0.06968842 0.03078807 1.14179269
0.06967953 0.03079055 1.14185193
0.06967063 0.03079302 1.14191118
0.06966173 0.03079549 1.14197043
0.06965284 0.03079796 1.14202967
0.06964393 0.03080044 1.14208898
0.06963503 0.03080291 1.14214823
0.06861868 0.03106504 1.14761153
0.06798013 0.03126288 1.15316863
0.07321982 0.02979637 1.11716874
0.07321095 0.02979884 1.11722781
0.07320208 0.02980130 1.11728688
0.07319322 0.02980377 1.11734589
0.07101105 0.03043388 1.13338828
0.07100216 0.03043635 1.13344753
0.07099326 0.03043882 1.13350677
0.07073524 0.03051054 1.13522500
0.07065516 0.03053279 1.13575828
0.07064626 0.03053527 1.13581752
0.07063736 0.03053774 1.13587677
0.07062847 0.03054021 1.13593602
0.07061957 0.03054269 1.13599527
0.07061067 0.03054516 1.13605451
0.07060178 0.03054763 1.13611376
0.07059288 0.03055010 1.13617301
0.07058398 0.03055258 1.13623225
0.06980102 0.03077020 1.14144622
0.06979212 0.03077267 1.14150547
0.06978322 0.03077514 1.14156472
0.06977432 0.03077761 1.14162396
0.06976543 0.03078009 1.14168321
0.06975653 0.03078256 1.14174246
0.06974763 0.03078503 1.14180170
0.06973874 0.03078751 1.14186095
0.06972984 0.03078998 1.14192020
0.06972094 0.03079245 1.14197945
0.06971205 0.03079492 1.14203869
0.06970314 0.03079740 1.14209800
0.06969424 0.03079987 1.14215724
0.06867827 0.03106170 1.14760638
0.06866940 0.03106416 1.14766545
0.06803934 0.03125984 1.15317765
0.07327883 0.02979334 1.11717773
0.07326996 0.02979581 1.11723680
0.07326109 0.02979827 1.11729587
0.07325223 0.02980074 1.11735488
0.07110584 0.03042095 1.13316031
0.07109695 0.03042342 1.13321956
0.07108805 0.03042589 1.13327880
0.07107915 0.03042836 1.13333805
0.07107025 0.03043084 1.13339730
0.07106136 0.03043331 1.13345654
0.07105246 0.03043578 1.13351579
0.07104356 0.03043825 1.13357504
0.07080334 0.03050502 1.13517477
0.07079444 0.03050750 1.13523401
0.07078554 0.03050997 1.13529326
0.07072326 0.03052728 1.13570805
0.07071436 0.03052975 1.13576729
0.07070546 0.03053223 1.13582654
0.07069657 0.03053470 1.13588579
0.07068767 0.03053717 1.13594504
0.07067877 0.03053965 1.13600428
0.07066987 0.03054212 1.13606353
0.07066098 0.03054459 1.13612278
0.07065208 0.03054706 1.13618202
0.07064318 0.03054954 1.13624127
0.07027839 0.03065093 1.13867051
0.07026949 0.03065340 1.13872976
0.07026060 0.03065587 1.13878901
0.07025170 0.03065835 1.13884825
0.07024280 0.03066082 1.13890750
0.07023391 0.03066329 1.13896675
0.06985132 0.03076963 1.14151449
0.06984242 0.03077210 1.14157373
0.06983353 0.03077457 1.14163298
0.06982463 0.03077705 1.14169223
0.06981573 0.03077952 1.14175147
0.06980684 0.03078199 1.14181072
0.06979794 0.03078447 1.14186997
0.06978904 0.03078694 1.14192922
0.06978015 0.03078941 1.14198846
0.06977125 0.03079188 1.14204771
0.06976234 0.03079436 1.14210702
0.06874507 0.03105683 1.14758458
0.06873730 0.03105866 1.14761537
0.06872843 0.03106113 1.14767444
0.06812523 0.03124938 1.15300893
0.06811634 0.03125185 1.15306818
0.06810744 0.03125433 1.15312742
0.06809854 0.03125680 1.15318667
0.07333783 0.02979031 1.11718672
0.07332896 0.02979278 1.11724579
0.07332009 0.02979524 1.11730486
0.07331123 0.02979771 1.11736387
0.07118285 0.03041296 1.13305077
0.07117394 0.03041543 1.13311008
0.07116504 0.03041791 1.13316933
0.07115615 0.03042038 1.13322857
0.07114725 0.03042285 1.13328782
0.07113835 0.03042532 1.13334707
0.07112946 0.03042780 1.13340632
0.07112056 0.03043027 1.13346556
0.07111166 0.03043274 1.13352481
0.07110277 0.03043522 1.13358406
0.07087144 0.03049951 1.13512454
0.07086254 0.03050198 1.13518378
0.07085364 0.03050446 1.13524303
0.07084475 0.03050693 1.13530228
0.07078246 0.03052424 1.13571706
0.07077356 0.03052671 1.13577631
0.07076466 0.03052919 1.13583556
0.07075577 0.03053166 1.13589481
0.07074687 0.03053413 1.13595405
0.07073797 0.03053661 1.13601330
0.07072908 0.03053908 1.13607255
0.07072018 0.03054155 1.13613179
0.07071128 0.03054402 1.13619104
0.07070239 0.03054650 1.13625029
0.07069349 0.03054897 1.13630953
0.07034649 0.03064542 1.13862028
0.07033759 0.03064789 1.13867953
0.07032870 0.03065036 1.13873878
0.07031980 0.03065283 1.13879803
0.07031090 0.03065531 1.13885727
0.07030201 0.03065778 1.13891652
0.07029311 0.03066025 1.13897577
0.06991052 0.03076659 1.14152350
0.06990163 0.03076906 1.14158275
0.06989273 0.03077153 1.14164200
0.06988383 0.03077401 1.14170124
0.06987494 0.03077648 1.14176049
0.06986604 0.03077895 1.14181974
0.06985714 0.03078143 1.14187899
0.06984824 0.03078390 1.14193823
0.06983935 0.03078637 1.14199748
0.06983045 0.03078884 1.14205673
0.06880434 0.03105366 1.14758746
0.06879618 0.03105572 1.14762838
0.06878746 0.03105810 1.14768343
0.06817554 0.03124881 1.15307719
0.06816664 0.03125129 1.15313644
0.06815775 0.03125376 1.15319569
0.07339684 0.02978728 1.11719570
0.07338797 0.02978975 1.11725477
0.07337910 0.02979221 1.11731384
0.07337024 0.02979468 1.11737285
0.07142889 0.03035799 1.13181561
0.07142000 0.03036046 1.13187485
0.07141110 0.03036293 1.13193410
0.07125985 0.03040497 1.13294130
0.07125095 0.03040744 1.13300055
0.07124206 0.03040992 1.13305979
0.07123315 0.03041239 1.13311910
0.07122425 0.03041486 1.13317835
0.07121536 0.03041734 1.13323759
0.07120646 0.03041981 1.13329684
0.07119756 0.03042228 1.13335609
0.07118867 0.03042476 1.13341533
0.07117977 0.03042723 1.13347458
0.07117087 0.03042970 1.13353383
0.07116198 0.03043217 1.13359307
0.07115308 0.03043465 1.13365232
0.07095734 0.03048905 1.13495581
0.07093954 0.03049400 1.13507431
0.07093065 0.03049647 1.13513355
0.07092175 0.03049894 1.13519280
0.07091285 0.03050142 1.13525205
0.07090396 0.03050389 1.13531130
0.07084167 0.03052120 1.13572608
0.07083277 0.03052367 1.13578533
0.07082387 0.03052615 1.13584458
0.07081498 0.03052862 1.13590382
0.07080608 0.03053109 1.13596307
0.07079718 0.03053357 1.13602232
0.07078829 0.03053604 1.13608156
0.07077939 0.03053851 1.13614081
0.07077049 0.03054098 1.13620006
0.07076160 0.03054346 1.13625931
0.07075270 0.03054593 1.13631855
0.07040570 0.03064238 1.13862930
0.07039680 0.03064485 1.13868855
0.07038791 0.03064732 1.13874780
0.07037901 0.03064979 1.13880704
0.07037011 0.03065227 1.13886629
0.07036122 0.03065474 1.13892554
0.07035232 0.03065721 1.13898478
0.07034342 0.03065969 1.13904403
0.06993415 0.03077344 1.14176951
0.06992525 0.03077591 1.14182876
0.06991635 0.03077839 1.14188800
0.06990745 0.03078086 1.14194725
0.06989856 0.03078333 1.14200650
0.06988966 0.03078580 1.14206574
0.06886338 0.03105063 1.14759645
0.06885513 0.03105274 1.14763941
0.06884665 0.03105498 1.14768835
0.06883778 0.03105744 1.14774742
0.06822585 0.03124825 1.15314546
0.06821696 0.03125072 1.15320471
0.07345585 0.02978425 1.11720469
0.07344698 0.02978672 1.11726376
0.07343811 0.02978918 1.11732283
0.07342925 0.02979165 1.11738184
0.07149700 0.03035247 1.13176532
0.07148810 0.03035495 1.13182462
0.07147920 0.03035742 1.13188387
0.07147030 0.03035989 1.13194312
0.07146140 0.03036237 1.13200236
0.07133685 0.03039699 1.13283182
0.07132795 0.03039946 1.13289107
0.07131905 0.03040193 1.13295032
0.07131016 0.03040440 1.13300956
0.07130126 0.03040688 1.13306881
0.07129235 0.03040935 1.13312812
0.07128346 0.03041182 1.13318736
0.07127456 0.03041430 1.13324661
0.07126566 0.03041677 1.13330586
0.07125677 0.03041924 1.13336510
0.07124787 0.03042172 1.13342435
0.07123897 0.03042419 1.13348360
0.07123008 0.03042666 1.13354284
0.07122118 0.03042913 1.13360209
0.07121228 0.03043161 1.13366134
0.07120409 0.03043365 1.13370080
0.07101654 0.03048601 1.13496483
0.07100764 0.03048849 1.13502408
0.07099875 0.03049096 1.13508332
0.07098985 0.03049343 1.13514257
0.07098095 0.03049590 1.13520182
0.07097206 0.03049838 1.13526107
0.07096316 0.03050085 1.13532031
0.07090977 0.03051569 1.13567585
0.07090087 0.03051816 1.13573510
0.07089197 0.03052063 1.13579435
0.07088308 0.03052311 1.13585359
0.07087418 0.03052558 1.13591284
0.07086528 0.03052805 1.13597209
0.07085639 0.03053053 1.13603134
0.07084749 0.03053300 1.13609058
0.07083859 0.03053547 1.13614983
0.07082970 0.03053794 1.13620908
0.07082080 0.03054042 1.13626832
0.07081190 0.03054289 1.13632757
0.07049159 0.03063192 1.13846058
0.07048270 0.03063439 1.13851983
0.07047380 0.03063686 1.13857907
0.07046490 0.03063934 1.13863832
0.07045601 0.03064181 1.13869757
0.07044711 0.03064428 1.13875681
0.07043821 0.03064675 1.13881606
0.07042932 0.03064923 1.13887531
0.07042042 0.03065170 1.13893455
0.07041152 0.03065417 1.13899380
0.07040262 0.03065665 1.13905305
0.06999335 0.03077040 1.14177853
0.06998445 0.03077287 1.14183777
0.06997555 0.03077535 1.14189702
0.06996666 0.03077782 1.14195627
0.06995776 0.03078029 1.14201551
0.06994886 0.03078276 1.14207476
0.06993996 0.03078524 1.14213407
0.06892241 0.03104760 1.14760545
0.06891416 0.03104971 1.14764840
0.06890560 0.03105199 1.14769938
0.06889681 0.03105441 1.14775641
0.06888802 0.03105683 1.14781350
0.06887915 0.03105930 1.14787257
0.06887050 0.03106163 1.14792559
0.06886188 0.03106396 1.14797855
0.06885339 0.03106620 1.14802755
0.07351485 0.02978122 1.11721368
0.07350598 0.02978369 1.11727275
0.07349711 0.02978615 1.11733182
0.07348825 0.02978862 1.11739083
0.07347938 0.02979108 1.11744990
0.07347051 0.02979355 1.11750897
0.07346165 0.02979601 1.11756798
0.07345278 0.02979848 1.11762705
0.07157400 0.03034449 1.13165584
0.07156510 0.03034696 1.13171509
