ply
format ascii 1.0
element vertex 1408
property float x
property float y
property float z
end_header
-0.17862076 0.13583957 0.10931144
-0.17861368 0.13582790 0.10936983
-0.17860661 0.13581622 0.10942822
-0.17859954 0.13580455 0.10948661
-0.17859247 0.13579287 0.10954499
-0.17858540 0.13578120 0.10960338
-0.17857833 0.13576953 0.10966177
-0.17857125 0.13575785 0.10972016
-0.17856418 0.13574618 0.10977855
-0.17856029 0.13573791 0.10982178
-0.17855004 0.13572283 0.10989532
-0.17854720 0.13571569 0.10993352
-0.17854049 0.13570440 0.10999020
-0.17853341 0.13569271 0.11004864
-0.17849346 0.13562942 0.11036248
-0.17848639 0.13561774 0.11042087
-0.17847931 0.13560607 0.11047926
-0.17847224 0.13559439 0.11053765
-0.17846517 0.13558272 0.11059604
-0.17845810 0.13557104 0.11065442
-0.17845103 0.13555937 0.11071281
-0.17844396 0.13554769 0.11077120
-0.17843688 0.13553602 0.11082959
-0.17840153 0.13547764 0.11112153
-0.17839445 0.13546597 0.11117992
-0.17838738 0.13545429 0.11123831
-0.17838031 0.13544262 0.11129669
-0.17837323 0.13543093 0.11135514
-0.17836616 0.13541926 0.11141353
-0.17835909 0.13540758 0.11147192
-0.17821765 0.13517407 0.11263973
-0.17821058 0.13516240 0.11269812
-0.17820350 0.13515072 0.11275651
-0.17819643 0.13513905 0.11281490
-0.17818936 0.13512737 0.11287329
-0.17818229 0.13511570 0.11293167
-0.17817522 0.13510402 0.11299006
-0.17816815 0.13509235 0.11304845
-0.17816107 0.13508067 0.11310684
-0.17815400 0.13506900 0.11316523
-0.17808329 0.13495225 0.11374911
-0.17807621 0.13494057 0.11380749
-0.17806914 0.13492890 0.11386588
-0.17806206 0.13491721 0.11392433
-0.17805499 0.13490554 0.11398272
-0.17804792 0.13489386 0.11404111
-0.17804085 0.13488219 0.11409949
-0.17798428 0.13478879 0.11456660
-0.17797720 0.13477711 0.11462499
-0.17797013 0.13476544 0.11468337
-0.17796306 0.13475376 0.11474176
-0.17795599 0.13474209 0.11480015
-0.17794892 0.13473041 0.11485854
-0.17794185 0.13471874 0.11491693
-0.17793477 0.13470706 0.11497531
-0.17791707 0.13467578 0.11513384
-0.17791000 0.13466411 0.11519223
-0.17787819 0.13461365 0.11544248
-0.17787112 0.13460198 0.11550086
-0.17786405 0.13459030 0.11555925
-0.17785698 0.13457863 0.11561764
-0.17784991 0.13456695 0.11567603
-0.17784284 0.13455528 0.11573442
-0.17783576 0.13454360 0.11579280
-0.17782869 0.13453193 0.11585119
-0.17782162 0.13452025 0.11590958
-0.17777919 0.13445021 0.11625991
-0.17777212 0.13443853 0.11631830
-0.17776505 0.13442686 0.11637668
-0.17775797 0.13441517 0.11643513
-0.17775090 0.13440349 0.11649352
-0.17774382 0.13439182 0.11655191
-0.17773675 0.13438014 0.11661029
-0.17772968 0.13436847 0.11666868
-0.17772261 0.13435679 0.11672707
-0.17771554 0.13434512 0.11678546
-0.17770847 0.13433345 0.11684385
-0.17763775 0.13421670 0.11742773
-0.17763068 0.13420502 0.11748612
-0.17762361 0.13419335 0.11754450
-0.17761653 0.13418167 0.11760289
-0.17760946 0.13417000 0.11766128
-0.17760238 0.13415831 0.11771973
-0.17759531 0.13414664 0.11777811
-0.17758824 0.13413496 0.11783650
-0.17758117 0.13412329 0.11789489
-0.17757410 0.13411161 0.11795328
-0.17756703 0.13409994 0.11801167
-0.17755995 0.13408826 0.11807005
-0.17755288 0.13407659 0.11812844
-0.17754581 0.13406491 0.11818683
-0.17753874 0.13405324 0.11824522
-0.17753167 0.13404156 0.11830361
-0.17752460 0.13402989 0.11836199
-0.17751752 0.13401821 0.11842038
-0.17751045 0.13400654 0.11847877
-0.17750338 0.13399486 0.11853716
-0.17749631 0.13398319 0.11859555
-0.17748924 0.13397151 0.11865393
-0.17748217 0.13395984 0.11871232
-0.17747509 0.13394816 0.11877071
-0.17746802 0.13393649 0.11882910
-0.17746095 0.13392481 0.11888749
-0.17745388 0.13391314 0.11894587
-0.17744680 0.13390145 0.11900432
-0.17743973 0.13388978 0.11906271
-0.17743266 0.13387810 0.11912110
-0.17742558 0.13386643 0.11917948
-0.17741851 0.13385475 0.11923787
-0.17741144 0.13384308 0.11929626
-0.17740437 0.13383140 0.11935465
-0.17739730 0.13381973 0.11941304
-0.17739023 0.13380805 0.11947142
-0.17738315 0.13379638 0.11952981
-0.17737608 0.13378470 0.11958820
-0.17736901 0.13377303 0.11964659
-0.17736194 0.13376135 0.11970498
-0.17735487 0.13374968 0.11976336
-0.17734780 0.13373800 0.11982175
-0.17734072 0.13372633 0.11988014
-0.17733365 0.13371465 0.11993853
-0.17732658 0.13370298 0.11999692
-0.17731951 0.13369130 0.12005530
-0.17731244 0.13367963 0.12011369
-0.17730537 0.13366795 0.12017208
-0.17729829 0.13365628 0.12023047
-0.17729122 0.13364459 0.12028891
-0.17728414 0.13363292 0.12034730
-0.17727707 0.13362124 0.12040569
-0.17727000 0.13360957 0.12046408
-0.17726293 0.13359789 0.12052247
-0.17725586 0.13358622 0.12058086
-0.17724879 0.13357454 0.12063924
-0.17724171 0.13356287 0.12069763
-0.17723464 0.13355119 0.12075602
-0.17722757 0.13353952 0.12081441
-0.17722050 0.13352784 0.12087280
-0.17721343 0.13351617 0.12093118
-0.17720636 0.13350449 0.12098957
-0.17719928 0.13349282 0.12104796
-0.17719221 0.13348114 0.12110635
-0.17718514 0.13346947 0.12116474
-0.17717807 0.13345779 0.12122312
-0.17717100 0.13344612 0.12128151
-0.17716393 0.13343444 0.12133990
-0.17715685 0.13342277 0.12139829
-0.17714978 0.13341109 0.12145668
-0.17714271 0.13339942 0.12151506
-0.17713563 0.13338773 0.12157351
-0.17712856 0.13337606 0.12163190
-0.17712149 0.13336438 0.12169029
-0.17711442 0.13335271 0.12174867
-0.17710734 0.13334103 0.12180706
-0.17710027 0.13332936 0.12186545
-0.17709320 0.13331768 0.12192384
-0.17708613 0.13330601 0.12198223
-0.17707906 0.13329433 0.12204061
-0.17707199 0.13328266 0.12209900
-0.17706491 0.13327098 0.12215739
-0.17705784 0.13325931 0.12221578
-0.17705077 0.13324763 0.12227417
-0.17704370 0.13323596 0.12233255
-0.17703663 0.13322428 0.12239094
-0.17702956 0.13321261 0.12244933
-0.17702248 0.13320094 0.12250772
-0.18112694 0.13988353 0.08911628
-0.18111987 0.13987186 0.08917467
-0.18111280 0.13986018 0.08923306
-0.18110573 0.13984851 0.08929145
-0.18109866 0.13983683 0.08934984
-0.18109158 0.13982516 0.08940822
-0.18108451 0.13981348 0.08946661
-0.18085474 0.13943209 0.09137608
-0.18083699 0.13940484 0.09151031
-0.18082992 0.13939316 0.09156870
-0.18082285 0.13938149 0.09162709
-0.18081577 0.13936981 0.09168547
-0.18080870 0.13935814 0.09174386
-0.18080163 0.13934646 0.09180225
-0.18079456 0.13933479 0.09186064
-0.18078749 0.13932311 0.09191903
-0.18076627 0.13928809 0.09209419
-0.18075920 0.13927641 0.09215258
-0.18075213 0.13926474 0.09221097
-0.18074505 0.13925305 0.09226941
-0.18073798 0.13924138 0.09232780
-0.18073091 0.13922970 0.09238619
-0.18072384 0.13921803 0.09244458
-0.18071676 0.13920635 0.09250296
-0.18070969 0.13919468 0.09256135
-0.18070262 0.13918300 0.09261974
-0.18069555 0.13917133 0.09267813
-0.18068848 0.13915965 0.09273652
-0.18068141 0.13914798 0.09279490
-0.18063190 0.13906626 0.09320362
-0.18062483 0.13905458 0.09326201
-0.18061776 0.13904291 0.09332040
-0.18061069 0.13903123 0.09337879
-0.18059654 0.13900787 0.09349562
-0.18058947 0.13899619 0.09355401
-0.18051168 0.13886777 0.09419628
-0.18050461 0.13885610 0.09425466
-0.18049753 0.13884442 0.09431305
-0.18049046 0.13883275 0.09437144
-0.18048339 0.13882107 0.09442983
-0.18047632 0.13880940 0.09448822
-0.18046925 0.13879772 0.09454660
-0.18046218 0.13878605 0.09460499
-0.18045510 0.13877437 0.09466338
-0.18044803 0.13876270 0.09472177
-0.18044095 0.13875101 0.09478021
-0.18043388 0.13873934 0.09483860
-0.18042681 0.13872766 0.09489699
-0.18041974 0.13871599 0.09495538
-0.18041267 0.13870431 0.09501377
-0.18040560 0.13869264 0.09507215
-0.18039852 0.13868096 0.09513054
-0.18039145 0.13866929 0.09518893
-0.18038438 0.13865761 0.09524732
-0.18037731 0.13864594 0.09530571
-0.18037024 0.13863426 0.09536409
-0.18036317 0.13862259 0.09542248
-0.18035609 0.13861091 0.09548087
-0.18034902 0.13859924 0.09553926
-0.18034195 0.13858756 0.09559765
-0.18033488 0.13857589 0.09565603
-0.18032781 0.13856421 0.09571442
-0.18032074 0.13855254 0.09577281
-0.18031366 0.13854086 0.09583120
-0.18030659 0.13852919 0.09588959
-0.18029952 0.13851751 0.09594797
-0.18029245 0.13850584 0.09600636
-0.18028537 0.13849415 0.09606481
-0.18027830 0.13848248 0.09612320
-0.18027123 0.13847080 0.09618159
-0.18026416 0.13845913 0.09623997
-0.18025708 0.13844745 0.09629836
-0.18025001 0.13843578 0.09635675
-0.18024294 0.13842410 0.09641514
-0.18023587 0.13841243 0.09647353
-0.18022880 0.13840075 0.09653191
-0.18022172 0.13838908 0.09659030
-0.18021465 0.13837740 0.09664869
-0.18020758 0.13836573 0.09670708
-0.18020051 0.13835405 0.09676547
-0.18019344 0.13834238 0.09682385
-0.18018637 0.13833070 0.09688224
-0.18017929 0.13831903 0.09694063
-0.18014394 0.13826065 0.09723257
-0.18013686 0.13824898 0.09729096
-0.18012979 0.13823729 0.09734940
-0.18012271 0.13822562 0.09740779
-0.18011564 0.13821394 0.09746618
-0.18010857 0.13820227 0.09752457
-0.18010150 0.13819059 0.09758296
-0.18009443 0.13817892 0.09764134
-0.18008736 0.13816724 0.09769973
-0.18008028 0.13815557 0.09775812
-0.18007644 0.13814738 0.09780095
-0.18007188 0.13813841 0.09784726
-0.18006481 0.13812674 0.09790565
-0.18001664 0.13805049 0.09828361
-0.18000957 0.13803882 0.09834200
-0.18000250 0.13802714 0.09840039
-0.17999542 0.13801547 0.09845878
-0.17998835 0.13800379 0.09851716
-0.17998128 0.13799212 0.09857555
-0.17997420 0.13798043 0.09863400
-0.17990349 0.13786368 0.09921788
-0.17989641 0.13785201 0.09927627
-0.17988934 0.13784033 0.09933466
-0.17988227 0.13782866 0.09939304
-0.17983984 0.13775861 0.09974337
-0.17983277 0.13774694 0.09980176
-0.17982570 0.13773526 0.09986015
-0.17981862 0.13772357 0.09991859
-0.17981155 0.13771190 0.09997698
-0.17980447 0.13770022 0.10003537
-0.17979740 0.13768855 0.10009376
-0.17979033 0.13767687 0.10015215
-0.17975497 0.13761850 0.10044409
-0.17974790 0.13760683 0.10050247
-0.17974083 0.13759515 0.10056086
-0.17973376 0.13758348 0.10061925
-0.17972669 0.13757180 0.10067764
-0.17971961 0.13756013 0.10073603
-0.17971254 0.13754845 0.10079441
-0.17970547 0.13753678 0.10085280
-0.17964182 0.13743169 0.10137835
-0.17963475 0.13742002 0.10143674
-0.17962768 0.13740834 0.10149513
-0.17954989 0.13727992 0.10213740
-0.17954282 0.13726824 0.10219578
-0.17953574 0.13725657 0.10225417
-0.17952867 0.13724489 0.10231256
-0.17952160 0.13723322 0.10237095
-0.17951452 0.13722153 0.10242940
-0.17950745 0.13720986 0.10248778
-0.17950038 0.13719818 0.10254617
-0.17947916 0.13716316 0.10272134
-0.17947209 0.13715148 0.10277972
-0.17946502 0.13713981 0.10283811
-0.17945795 0.13712813 0.10289650
-0.17945088 0.13711646 0.10295489
-0.17944380 0.13710478 0.10301328
-0.17943673 0.13709311 0.10307166
-0.17942966 0.13708143 0.10313005
-0.17942259 0.13706976 0.10318844
-0.17941552 0.13705808 0.10324683
-0.17940845 0.13704641 0.10330522
-0.17940137 0.13703473 0.10336360
-0.17939430 0.13702306 0.10342199
-0.17938723 0.13701138 0.10348038
-0.17938016 0.13699971 0.10353877
-0.17937309 0.13698803 0.10359716
-0.17936602 0.13697636 0.10365554
-0.17935894 0.13696467 0.10371399
-0.17935187 0.13695300 0.10377238
-0.17934479 0.13694132 0.10383077
-0.17933772 0.13692965 0.10388915
-0.17933065 0.13691797 0.10394754
-0.17932358 0.13690630 0.10400593
-0.17931651 0.13689462 0.10406432
-0.17930944 0.13688295 0.10412271
-0.17930236 0.13687127 0.10418109
-0.17929529 0.13685960 0.10423948
-0.17928822 0.13684792 0.10429787
-0.17928115 0.13683625 0.10435626
-0.17927408 0.13682457 0.10441465
-0.17926701 0.13681290 0.10447303
-0.17925993 0.13680122 0.10453142
-0.17925286 0.13678955 0.10458981
-0.17924579 0.13677787 0.10464820
-0.17923872 0.13676620 0.10470659
-0.17923165 0.13675452 0.10476497
-0.17922458 0.13674285 0.10482336
-0.17921750 0.13673117 0.10488175
-0.17921043 0.13671950 0.10494014
-0.17920335 0.13670781 0.10499858
-0.17919628 0.13669614 0.10505697
-0.17918921 0.13668446 0.10511536
-0.17908313 0.13650934 0.10599118
-0.17907606 0.13649767 0.10604957
-0.17906899 0.13648599 0.10610796
-0.17906192 0.13647432 0.10616635
-0.17905485 0.13646264 0.10622473
-0.17904777 0.13645095 0.10628318
-0.17904070 0.13643928 0.10634157
-0.17895584 0.13629918 0.10704222
-0.17894877 0.13628751 0.10710061
-0.17894169 0.13627583 0.10715900
-0.17893462 0.13626416 0.10721739
-0.17892755 0.13625248 0.10727578
-0.17892048 0.13624081 0.10733416
-0.17891341 0.13622913 0.10739255
-0.17890634 0.13621746 0.10745094
-0.17889926 0.13620578 0.10750933
-0.17884976 0.13612405 0.10791810
-0.17884268 0.13611237 0.10797649
-0.17883561 0.13610070 0.10803488
-0.17882854 0.13608902 0.10809327
-0.17882147 0.13607735 0.10815165
-0.17881440 0.13606567 0.10821004
-0.17880733 0.13605400 0.10826843
-0.17874367 0.13594891 0.10879398
-0.17873660 0.13593724 0.10885237
-0.17872953 0.13592556 0.10891076
-0.17872246 0.13591389 0.10896915
-0.17871539 0.13590221 0.10902753
-0.17867296 0.13583216 0.10937786
-0.17866588 0.13582049 0.10943625
-0.17865881 0.13580881 0.10949464
-0.17865174 0.13579714 0.10955303
-0.17864467 0.13578546 0.10961141
-0.17863760 0.13577379 0.10966980
-0.17863053 0.13576211 0.10972819
-0.17862699 0.13575422 0.10976976
-0.17862027 0.13574293 0.10982644
-0.17861355 0.13573163 0.10988317
-0.17860684 0.13572033 0.10993984
-0.17860046 0.13570941 0.10999491
-0.17859339 0.13569773 0.11005330
-0.17855273 0.13563368 0.11037052
-0.17854566 0.13562200 0.11042890
-0.17853859 0.13561033 0.11048729
-0.17853152 0.13559865 0.11054568
-0.17852444 0.13558698 0.11060407
-0.17851737 0.13557530 0.11066246
-0.17851030 0.13556363 0.11072084
-0.17850323 0.13555195 0.11077923
-0.17849616 0.13554028 0.11083762
-0.17844666 0.13545855 0.11124634
-0.17843958 0.13544688 0.11130472
-0.17843250 0.13543519 0.11136317
-0.17842543 0.13542352 0.11142156
-0.17841836 0.13541184 0.11147995
-0.17825571 0.13514331 0.11282293
-0.17824863 0.13513163 0.11288132
-0.17824156 0.13511996 0.11293971
-0.17823449 0.13510828 0.11299809
-0.17822742 0.13509661 0.11305648
-0.17822035 0.13508494 0.11311487
-0.17814256 0.13495651 0.11375714
-0.17813549 0.13494484 0.11381553
-0.17812842 0.13493316 0.11387391
-0.17812134 0.13492148 0.11393236
-0.17811427 0.13490980 0.11399075
-0.17810719 0.13489813 0.11404914
-0.17810012 0.13488645 0.11410752
-0.17809305 0.13487478 0.11416591
-0.17807184 0.13483975 0.11434108
-0.17804355 0.13479305 0.11457463
-0.17803648 0.13478138 0.11463302
-0.17801526 0.13474635 0.11480818
-0.17800819 0.13473468 0.11486657
-0.17800112 0.13472300 0.11492496
-0.17799405 0.13471133 0.11498334
-0.17797669 0.13468042 0.11514021
-0.17796962 0.13466874 0.11519860
-0.17793039 0.13460624 0.11550890
-0.17792332 0.13459457 0.11556728
-0.17791625 0.13458289 0.11562567
-0.17790918 0.13457122 0.11568406
-0.17790211 0.13455954 0.11574245
-0.17789504 0.13454787 0.11580084
-0.17782432 0.13443112 0.11638472
-0.17781724 0.13441943 0.11644316
-0.17781017 0.13440776 0.11650155
-0.17780310 0.13439608 0.11655994
-0.17779603 0.13438441 0.11661833
-0.17778895 0.13437273 0.11667671
-0.17778188 0.13436106 0.11673510
-0.17777481 0.13434938 0.11679349
-0.17776774 0.13433771 0.11685188
-0.17769702 0.13422096 0.11743576
-0.17768995 0.13420928 0.11749415
-0.17768288 0.13419761 0.11755253
-0.17767581 0.13418593 0.11761092
-0.17766874 0.13417426 0.11766931
-0.17766166 0.13416257 0.11772776
-0.17765458 0.13415090 0.11778614
-0.17764751 0.13413922 0.11784453
-0.17764044 0.13412755 0.11790292
-0.17763337 0.13411587 0.11796131
-0.17762630 0.13410420 0.11801970
-0.17761923 0.13409252 0.11807808
-0.17759094 0.13404582 0.11831164
-0.17758387 0.13403415 0.11837002
-0.17757680 0.13402247 0.11842841
-0.17756972 0.13401080 0.11848680
-0.17756265 0.13399912 0.11854519
-0.17755558 0.13398745 0.11860358
-0.17754851 0.13397577 0.11866197
-0.17754144 0.13396410 0.11872035
-0.17753437 0.13395243 0.11877874
-0.17752729 0.13394075 0.11883713
-0.17752022 0.13392908 0.11889552
-0.17751315 0.13391740 0.11895391
-0.17750607 0.13390571 0.11901235
-0.17749900 0.13389404 0.11907074
-0.17749193 0.13388236 0.11912913
-0.17748486 0.13387069 0.11918752
-0.17747779 0.13385901 0.11924590
-0.17747071 0.13384734 0.11930429
-0.17746364 0.13383566 0.11936268
-0.17745657 0.13382399 0.11942107
-0.17744950 0.13381231 0.11947946
-0.17744243 0.13380064 0.11953784
-0.17743536 0.13378897 0.11959623
-0.17742828 0.13377729 0.11965462
-0.17742121 0.13376562 0.11971301
-0.17741414 0.13375394 0.11977140
-0.17740707 0.13374227 0.11982978
-0.17740000 0.13373059 0.11988817
-0.17739293 0.13371892 0.11994656
-0.17738585 0.13370724 0.12000495
-0.17737878 0.13369557 0.12006334
-0.17737171 0.13368389 0.12012172
-0.17736464 0.13367222 0.12018011
-0.17735757 0.13366054 0.12023850
-0.17735049 0.13364886 0.12029695
-0.17734342 0.13363718 0.12035533
-0.17733634 0.13362551 0.12041372
-0.17732927 0.13361383 0.12047211
-0.17731513 0.13359048 0.12058889
-0.17730806 0.13357881 0.12064727
-0.17730099 0.13356713 0.12070566
-0.17729391 0.13355546 0.12076405
-0.17728684 0.13354378 0.12082244
-0.17727977 0.13353211 0.12088083
-0.17727270 0.13352043 0.12093921
-0.17726563 0.13350876 0.12099760
-0.17725856 0.13349708 0.12105599
-0.17725148 0.13348541 0.12111438
-0.17724441 0.13347373 0.12117277
-0.17723734 0.13346206 0.12123115
-0.17723027 0.13345038 0.12128954
-0.17722320 0.13343871 0.12134793
-0.17721613 0.13342703 0.12140632
-0.17720905 0.13341536 0.12146471
-0.17720198 0.13340368 0.12152309
-0.17719490 0.13339200 0.12158154
-0.17718783 0.13338032 0.12163993
-0.17718076 0.13336865 0.12169832
-0.17717369 0.13335697 0.12175671
-0.17716662 0.13334530 0.12181509
-0.17715955 0.13333362 0.12187348
-0.17715247 0.13332195 0.12193187
-0.17714540 0.13331027 0.12199026
-0.17713833 0.13329860 0.12204865
-0.17713126 0.13328692 0.12210703
-0.17712419 0.13327525 0.12216542
-0.17711712 0.13326357 0.12222381
-0.17711004 0.13325190 0.12228220
-0.17710297 0.13324022 0.12234059
-0.17709590 0.13322855 0.12239897
-0.17708883 0.13321687 0.12245736
-0.17708176 0.13320520 0.12251575
-0.18118622 0.13988779 0.08912432
-0.18117914 0.13987612 0.08918270
-0.18117207 0.13986444 0.08924109
-0.18116500 0.13985277 0.08929948
-0.18115793 0.13984110 0.08935787
-0.18115086 0.13982942 0.08941626
-0.18114379 0.13981775 0.08947464
-0.18113671 0.13980607 0.08953303
-0.18091438 0.13943675 0.09138234
-0.18089626 0.13940910 0.09151834
-0.18088919 0.13939743 0.09157673
-0.18088212 0.13938575 0.09163512
-0.18087505 0.13937408 0.09169351
-0.18086798 0.13936240 0.09175189
-0.18086451 0.13935463 0.09179283
-0.18085744 0.13934296 0.09185122
-0.18081847 0.13928068 0.09216061
-0.18081140 0.13926900 0.09221900
-0.18080432 0.13925732 0.09227744
-0.18079725 0.13924564 0.09233583
-0.18079018 0.13923397 0.09239422
-0.18078311 0.13922229 0.09245261
-0.18077604 0.13921062 0.09251100
-0.18076896 0.13919894 0.09256938
-0.18076586 0.13919156 0.09260860
-0.18075879 0.13917988 0.09266699
-0.18075208 0.13916861 0.09272361
-0.18069825 0.13908219 0.09315326
-0.18069118 0.13907052 0.09321165
-0.18068410 0.13905884 0.09327004
-0.18067703 0.13904717 0.09332843
-0.18057095 0.13887203 0.09420431
-0.18056388 0.13886036 0.09426270
-0.18055681 0.13884868 0.09432108
-0.18054974 0.13883701 0.09437947
-0.18054266 0.13882533 0.09443786
-0.18053559 0.13881366 0.09449625
-0.18052852 0.13880198 0.09455464
-0.18052145 0.13879031 0.09461302
-0.18051438 0.13877863 0.09467141
-0.18050731 0.13876696 0.09472980
-0.18048608 0.13873192 0.09490502
-0.18047901 0.13872025 0.09496341
-0.18047194 0.13870857 0.09502180
-0.18046487 0.13869690 0.09508019
-0.18045780 0.13868522 0.09513857
-0.18045073 0.13867355 0.09519696
-0.18044365 0.13866187 0.09525535
-0.18043982 0.13865370 0.09529812
-0.18043347 0.13864279 0.09535307
-0.18042244 0.13862685 0.09543051
-0.18041537 0.13861517 0.09548890
-0.18040829 0.13860350 0.09554729
-0.18040122 0.13859182 0.09560568
-0.18039415 0.13858015 0.09566407
-0.18038708 0.13856848 0.09572245
-0.18038001 0.13855680 0.09578084
-0.18037294 0.13854513 0.09583923
-0.18036945 0.13853732 0.09588034
-0.18035879 0.13852178 0.09595601
-0.18035172 0.13851010 0.09601439
-0.18034824 0.13850230 0.09605551
-0.18034117 0.13849062 0.09611389
-0.18033410 0.13847895 0.09617228
-0.18032343 0.13846339 0.09624800
-0.18031636 0.13845171 0.09630639
-0.18030928 0.13844004 0.09636478
-0.18030221 0.13842836 0.09642317
-0.18029514 0.13841669 0.09648156
-0.18028807 0.13840502 0.09653994
-0.18028100 0.13839334 0.09659833
-0.18027393 0.13838167 0.09665672
-0.18026685 0.13836999 0.09671511
-0.18025978 0.13835832 0.09677350
-0.18025271 0.13834664 0.09683188
-0.18024564 0.13833497 0.09689027
-0.18022058 0.13829174 0.09710832
-0.18021351 0.13828007 0.09716671
-0.18020321 0.13826492 0.09724060
-0.18019614 0.13825324 0.09729899
-0.18018906 0.13824156 0.09735744
-0.18018199 0.13822988 0.09741582
-0.18017492 0.13821821 0.09747421
-0.18016784 0.13820653 0.09753260
-0.18016077 0.13819486 0.09759099
-0.18015370 0.13818318 0.09764938
-0.18014663 0.13817151 0.09770776
-0.18013956 0.13815983 0.09776615
-0.18013572 0.13815164 0.09780898
-0.18012936 0.13814074 0.09786393
-0.18008298 0.13806643 0.09823326
-0.18007591 0.13805476 0.09829164
-0.18006884 0.13804308 0.09835003
-0.18006177 0.13803141 0.09840842
-0.18005470 0.13801973 0.09846681
-0.18004763 0.13800806 0.09852520
-0.18004055 0.13799638 0.09858358
-0.17996983 0.13787962 0.09916752
-0.17996276 0.13786795 0.09922591
-0.17995569 0.13785627 0.09928430
-0.17989911 0.13776287 0.09975140
-0.17989204 0.13775120 0.09980979
-0.17988497 0.13773952 0.09986818
-0.17987789 0.13772784 0.09992662
-0.17987082 0.13771616 0.09998501
-0.17986375 0.13770449 0.10004340
-0.17985668 0.13769281 0.10010179
-0.17984960 0.13768114 0.10016018
-0.17980717 0.13761109 0.10051050
-0.17980010 0.13759941 0.10056889
-0.17979303 0.13758774 0.10062728
-0.17978596 0.13757606 0.10068567
-0.17977889 0.13756439 0.10074406
-0.17977182 0.13755271 0.10080245
-0.17976474 0.13754104 0.10086083
-0.17970109 0.13743595 0.10138638
-0.17969402 0.13742428 0.10144477
-0.17968695 0.13741260 0.10150316
-0.17960916 0.13728418 0.10214543
-0.17960209 0.13727251 0.10220382
-0.17959502 0.13726083 0.10226220
-0.17958794 0.13724916 0.10232059
-0.17958087 0.13723748 0.10237898
-0.17957379 0.13722579 0.10243743
-0.17956672 0.13721412 0.10249581
-0.17955965 0.13720244 0.10255420
-0.17953136 0.13715574 0.10278775
-0.17952429 0.13714407 0.10284614
-0.17951722 0.13713239 0.10290453
-0.17951015 0.13712072 0.10296292
-0.17950308 0.13710905 0.10302131
-0.17949601 0.13709737 0.10307969
-0.17948893 0.13708570 0.10313808
-0.17948186 0.13707402 0.10319647
-0.17947479 0.13706235 0.10325486
-0.17946065 0.13703900 0.10337163
-0.17945358 0.13702732 0.10343002
-0.17944650 0.13701565 0.10348841
-0.17943943 0.13700397 0.10354680
-0.17943236 0.13699230 0.10360519
-0.17942529 0.13698062 0.10366357
-0.17941821 0.13696894 0.10372202
-0.17941114 0.13695726 0.10378041
-0.17940407 0.13694559 0.10383880
-0.17939700 0.13693391 0.10389719
-0.17938992 0.13692224 0.10395557
-0.17938285 0.13691056 0.10401396
-0.17937578 0.13689889 0.10407235
-0.17936871 0.13688721 0.10413074
-0.17936164 0.13687554 0.10418913
-0.17935457 0.13686386 0.10424751
-0.17934749 0.13685219 0.10430590
-0.17934042 0.13684051 0.10436429
-0.17933335 0.13682884 0.10442268
-0.17932628 0.13681716 0.10448107
-0.17931921 0.13680549 0.10453945
-0.17931213 0.13679381 0.10459784
-0.17930862 0.13678595 0.10463924
-0.17930190 0.13677466 0.10469591
-0.17929555 0.13676376 0.10475087
-0.17928847 0.13675207 0.10480932
-0.17928140 0.13674039 0.10486770
-0.17927433 0.13672872 0.10492609
-0.17926583 0.13671552 0.10499129
-0.17913534 0.13650193 0.10605760
-0.17912826 0.13649025 0.10611599
-0.17912119 0.13647858 0.10617438
-0.17911412 0.13646690 0.10623276
-0.17910704 0.13645522 0.10629121
-0.17901511 0.13630344 0.10705026
-0.17900804 0.13629177 0.10710864
-0.17900097 0.13628009 0.10716703
-0.17899390 0.13626842 0.10722542
-0.17898682 0.13625674 0.10728381
-0.17897975 0.13624507 0.10734220
-0.17897268 0.13623339 0.10740058
-0.17896561 0.13622172 0.10745897
-0.17895854 0.13621004 0.10751736
-0.17890903 0.13612831 0.10792613
-0.17890196 0.13611663 0.10798452
-0.17889488 0.13610496 0.10804291
-0.17888781 0.13609328 0.10810130
-0.17888074 0.13608161 0.10815969
-0.17887367 0.13606993 0.10821807
-0.17872516 0.13582475 0.10944428
-0.17871809 0.13581308 0.10950267
-0.17871101 0.13580140 0.10956106
-0.17870394 0.13578973 0.10961944
-0.17869687 0.13577805 0.10967783
-0.17869334 0.13577017 0.10971935
-0.17868662 0.13575886 0.10977608
-0.17867990 0.13574756 0.10983281
-0.17867282 0.13573589 0.10989120
-0.17866611 0.13572460 0.10994787
-0.17865974 0.13571367 0.11000294
-0.17865267 0.13570199 0.11006133
-0.17860493 0.13562627 0.11043694
-0.17859786 0.13561459 0.11049532
-0.17859079 0.13560292 0.11055371
-0.17858372 0.13559124 0.11061210
-0.17857664 0.13557957 0.11067049
-0.17856957 0.13556789 0.11072888
-0.17856250 0.13555622 0.11078726
-0.17855543 0.13554454 0.11084565
-0.17850593 0.13546282 0.11125437
-0.17849886 0.13545114 0.11131276
-0.17849178 0.13543946 0.11137120
-0.17848471 0.13542778 0.11142959
-0.17847763 0.13541611 0.11148798
-0.17830791 0.13513590 0.11288935
-0.17830084 0.13512422 0.11294774
-0.17829376 0.13511255 0.11300612
-0.17828669 0.13510087 0.11306451
-0.17820890 0.13497245 0.11370678
-0.17820183 0.13496077 0.11376517
-0.17819476 0.13494910 0.11382356
-0.17818769 0.13493742 0.11388195
-0.17818061 0.13492574 0.11394039
-0.17817354 0.13491406 0.11399878
-0.17816647 0.13490239 0.11405717
-0.17815939 0.13489071 0.11411556
-0.17815232 0.13487904 0.11417394
-0.17813111 0.13484401 0.11434911
-0.17812404 0.13483234 0.11440750
-0.17810989 0.13480899 0.11452427
-0.17810282 0.13479731 0.11458266
-0.17809575 0.13478564 0.11464105
-0.17806390 0.13473101 0.11491635
-0.17805683 0.13471933 0.11497474
-0.17804941 0.13470729 0.11503478
-0.17804304 0.13469636 0.11508986
-0.17803632 0.13468506 0.11514659
-0.17802925 0.13467338 0.11520497
-0.17798260 0.13459883 0.11557531
-0.17797552 0.13458715 0.11563370
-0.17796845 0.13457548 0.11569209
-0.17796138 0.13456380 0.11575048
-0.17787651 0.13442369 0.11645119
-0.17786944 0.13441202 0.11650958
-0.17786237 0.13440035 0.11656797
-0.17785530 0.13438867 0.11662636
-0.17784823 0.13437700 0.11668475
-0.17784115 0.13436532 0.11674313
-0.17783408 0.13435365 0.11680152
-0.17782701 0.13434197 0.11685991
-0.17775629 0.13422522 0.11744379
-0.17774922 0.13421355 0.11750218
-0.17774215 0.13420187 0.11756057
-0.17773508 0.13419020 0.11761895
-0.17772801 0.13417852 0.11767734
-0.17772093 0.13416684 0.11773579
-0.17771386 0.13415516 0.11779418
-0.17770994 0.13414684 0.11783764
-0.17764314 0.13403841 0.11837806
-0.17763922 0.13403010 0.11842152
-0.17762900 0.13401506 0.11849483
-0.17762193 0.13400339 0.11855322
-0.17761485 0.13399171 0.11861161
-0.17760778 0.13398004 0.11867000
-0.17760071 0.13396836 0.11872838
-0.17759364 0.13395669 0.11878677
-0.17758657 0.13394501 0.11884516
-0.17757950 0.13393334 0.11890355
-0.17757242 0.13392166 0.11896194
-0.17756535 0.13390998 0.11902038
-0.17755827 0.13389830 0.11907877
-0.17755120 0.13388663 0.11913716
-0.17754413 0.13387495 0.11919555
-0.17753706 0.13386328 0.11925393
-0.17752999 0.13385160 0.11931232
-0.17752291 0.13383993 0.11937071
-0.17750170 0.13380490 0.11954587
-0.17749463 0.13379323 0.11960426
-0.17748756 0.13378155 0.11966265
-0.17748048 0.13376988 0.11972104
-0.17747341 0.13375820 0.11977943
-0.17746634 0.13374653 0.11983782
-0.17745927 0.13373485 0.11989620
-0.17745220 0.13372318 0.11995459
-0.17744513 0.13371150 0.12001298
-0.17743805 0.13369983 0.12007137
-0.17743098 0.13368815 0.12012976
-0.17742391 0.13367648 0.12018814
-0.17741684 0.13366480 0.12024653
-0.17740976 0.13365312 0.12030498
-0.17740269 0.13364144 0.12036337
-0.17739562 0.13362977 0.12042175
-0.17738855 0.13361809 0.12048014
-0.17736733 0.13358307 0.12065531
-0.17736026 0.13357139 0.12071369
-0.17735319 0.13355972 0.12077208
-0.17734612 0.13354804 0.12083047
-0.17733904 0.13353637 0.12088886
-0.17733197 0.13352469 0.12094725
-0.17732490 0.13351302 0.12100563
-0.17731783 0.13350134 0.12106402
-0.17731076 0.13348967 0.12112241
-0.17730369 0.13347799 0.12118080
-0.17729661 0.13346632 0.12123919
-0.17728954 0.13345464 0.12129757
-0.17728247 0.13344297 0.12135596
-0.17727540 0.13343130 0.12141435
-0.17726833 0.13341962 0.12147274
-0.17726126 0.13340795 0.12153113
-0.17725418 0.13339626 0.12158957
-0.17724711 0.13338458 0.12164796
-0.17724003 0.13337291 0.12170635
-0.17723296 0.13336123 0.12176474
-0.17722589 0.13334956 0.12182312
-0.17720468 0.13331453 0.12199829
-0.17719760 0.13330286 0.12205668
-0.17719053 0.13329118 0.12211506
-0.17718346 0.13327951 0.12217345
-0.17717639 0.13326784 0.12223184
-0.17716932 0.13325616 0.12229023
-0.17716225 0.13324449 0.12234862
-0.17715517 0.13323281 0.12240700
-0.17714810 0.13322114 0.12246539
-0.17714103 0.13320946 0.12252378
-0.18124548 0.13989206 0.08913235
-0.18123841 0.13988038 0.08919073
-0.18123134 0.13986871 0.08924912
-0.18122427 0.13985703 0.08930751
-0.18121720 0.13984536 0.08936590
-0.18121013 0.13983368 0.08942429
-0.18120305 0.13982201 0.08948267
-0.18119598 0.13981033 0.08954106
-0.18097329 0.13944062 0.09139215
-0.18096260 0.13942504 0.09146798
-0.18095553 0.13941336 0.09152637
-0.18094846 0.13940169 0.09158476
-0.18094139 0.13939001 0.09164315
-0.18093432 0.13937834 0.09170154
-0.18092724 0.13936666 0.09175992
-0.18092415 0.13935928 0.09179915
-0.18091707 0.13934761 0.09185753
-0.18088481 0.13929661 0.09211025
-0.18087774 0.13928494 0.09216864
-0.18087067 0.13927327 0.09222703
-0.18086359 0.13926158 0.09228547
-0.18085652 0.13924990 0.09234386
-0.18084945 0.13923823 0.09240225
-0.18084238 0.13922655 0.09246064
-0.18083531 0.13921488 0.09251903
-0.18082823 0.13920320 0.09257741
-0.18082514 0.13919582 0.09261664
-0.18081806 0.13918415 0.09267502
-0.18077166 0.13910981 0.09304452
-0.18076459 0.13909813 0.09310291
-0.18075752 0.13908646 0.09316130
-0.18075045 0.13907478 0.09321968
-0.18074337 0.13906311 0.09327807
-0.18073630 0.13905143 0.09333646
-0.18063022 0.13887630 0.09421234
-0.18062315 0.13886462 0.09427073
-0.18061608 0.13885295 0.09432911
-0.18060900 0.13884127 0.09438750
-0.18060193 0.13882960 0.09444589
-0.18059486 0.13881792 0.09450428
-0.18058779 0.13880625 0.09456267
-0.18058072 0.13879457 0.09462105
-0.18057365 0.13878290 0.09467944
-0.18056657 0.13877122 0.09473783
-0.18054535 0.13873619 0.09491305
-0.18053828 0.13872451 0.09497144
-0.18053121 0.13871284 0.09502983
-0.18052414 0.13870116 0.09508822
-0.18051707 0.13868949 0.09514660
-0.18050999 0.13867781 0.09520499
-0.18050292 0.13866614 0.09526338
-0.18049909 0.13865796 0.09530615
-0.18049274 0.13864705 0.09536111
-0.18048171 0.13863111 0.09543854
-0.18047464 0.13861944 0.09549693
-0.18046756 0.13860776 0.09555532
-0.18046049 0.13859609 0.09561371
-0.18045342 0.13858441 0.09567210
-0.18044635 0.13857274 0.09573048
-0.18043928 0.13856106 0.09578887
-0.18043544 0.13855287 0.09583170
-0.18042873 0.13854158 0.09588837
-0.18041806 0.13852604 0.09596404
-0.18041099 0.13851436 0.09602242
-0.18040716 0.13850618 0.09606525
-0.18040044 0.13849489 0.09612192
-0.18039301 0.13848283 0.09618203
-0.18038270 0.13846765 0.09625603
-0.18037563 0.13845598 0.09631442
-0.18036855 0.13844430 0.09637281
-0.18036148 0.13843263 0.09643120
-0.18035441 0.13842095 0.09648959
-0.18034734 0.13840928 0.09654798
-0.18034027 0.13839760 0.09660636
-0.18033319 0.13838593 0.09666475
-0.18032612 0.13837425 0.09672314
-0.18031905 0.13836258 0.09678153
-0.18031198 0.13835090 0.09683992
-0.18030491 0.13833923 0.09689830
-0.18027662 0.13829253 0.09713186
-0.18026955 0.13828085 0.09719024
-0.18026248 0.13826918 0.09724863
-0.18025541 0.13825750 0.09730702
-0.18024833 0.13824582 0.09736547
-0.18024126 0.13823414 0.09742385
-0.18023418 0.13822247 0.09748224
-0.18022711 0.13821079 0.09754063
-0.18022004 0.13819912 0.09759902
-0.18021297 0.13818744 0.09765741
-0.18020590 0.13817577 0.09771579
-0.18014932 0.13808237 0.09818290
-0.18014225 0.13807069 0.09824129
-0.18013518 0.13805902 0.09829967
-0.18012811 0.13804734 0.09835806
-0.18012104 0.13803567 0.09841645
-0.18011397 0.13802399 0.09847484
-0.18010689 0.13801232 0.09853323
-0.18004324 0.13790723 0.09905878
-0.18003617 0.13789556 0.09911716
-0.18002910 0.13788388 0.09917555
-0.18002203 0.13787221 0.09923394
-0.17995838 0.13776714 0.09975943
-0.17995131 0.13775546 0.09981782
-0.17994424 0.13774379 0.09987621
-0.17993716 0.13773210 0.09993466
-0.17993009 0.13772042 0.09999304
-0.17992302 0.13770875 0.10005143
-0.17991594 0.13769707 0.10010982
-0.17990887 0.13768540 0.10016821
-0.17986644 0.13761535 0.10051854
-0.17985937 0.13760368 0.10057692
-0.17985230 0.13759200 0.10063531
-0.17984523 0.13758033 0.10069370
-0.17983816 0.13756865 0.10075209
-0.17983108 0.13755698 0.10081048
-0.17976036 0.13744022 0.10139441
-0.17975329 0.13742854 0.10145280
-0.17974622 0.13741687 0.10151119
-0.17973915 0.13740519 0.10156958
-0.17966843 0.13728844 0.10215346
-0.17966136 0.13727677 0.10221185
-0.17965429 0.13726509 0.10227023
-0.17964721 0.13725342 0.10232862
-0.17964014 0.13724174 0.10238701
-0.17963306 0.13723006 0.10244546
-0.17962599 0.13721838 0.10250384
-0.17961892 0.13720671 0.10256223
-0.17957649 0.13713666 0.10291256
-0.17956942 0.13712498 0.10297095
-0.17956235 0.13711331 0.10302934
-0.17955527 0.13710163 0.10308773
-0.17954820 0.13708996 0.10314611
-0.17954113 0.13707828 0.10320450
-0.17953406 0.13706661 0.10326289
-0.17950577 0.13701991 0.10349644
-0.17949870 0.13700823 0.10355483
-0.17949163 0.13699656 0.10361322
-0.17948456 0.13698488 0.10367161
-0.17947748 0.13697320 0.10373005
-0.17947041 0.13696152 0.10378844
-0.17946334 0.13694985 0.10384683
-0.17945626 0.13693817 0.10390522
-0.17944919 0.13692650 0.10396360
-0.17944212 0.13691482 0.10402199
-0.17943505 0.13690315 0.10408038
-0.17942798 0.13689147 0.10413877
-0.17942091 0.13687980 0.10419716
-0.17941383 0.13686812 0.10425554
-0.17940676 0.13685645 0.10431393
-0.17939969 0.13684477 0.10437232
-0.17939262 0.13683310 0.10443071
-0.17938555 0.13682142 0.10448910
-0.17937848 0.13680975 0.10454748
-0.17937140 0.13679807 0.10460587
-0.17936789 0.13679021 0.10464727
-0.17936154 0.13677931 0.10470223
-0.17935482 0.13676802 0.10475890
-0.17934774 0.13675633 0.10481735
-0.17934067 0.13674466 0.10487574
-0.17933360 0.13673298 0.10493412
-0.17920168 0.13651787 0.10600724
-0.17919460 0.13650619 0.10606563
-0.17918753 0.13649452 0.10612402
-0.17918046 0.13648284 0.10618241
-0.17917339 0.13647117 0.10624080
-0.17907438 0.13630771 0.10705829
-0.17906731 0.13629603 0.10711667
-0.17906024 0.13628436 0.10717506
-0.17905316 0.13627268 0.10723345
-0.17904609 0.13626101 0.10729184
-0.17903902 0.13624933 0.10735023
-0.17903195 0.13623766 0.10740861
-0.17902488 0.13622598 0.10746700
-0.17897537 0.13614425 0.10787578
-0.17896830 0.13613257 0.10793416
-0.17896123 0.13612090 0.10799255
-0.17895415 0.13610922 0.10805094
-0.17894708 0.13609755 0.10810933
-0.17894001 0.13608587 0.10816772
-0.17893294 0.13607420 0.10822610
-0.17877735 0.13581734 0.10951070
-0.17877028 0.13580566 0.10956909
-0.17876321 0.13579399 0.10962748
-0.17875614 0.13578231 0.10968586
-0.17875261 0.13577443 0.10972738
-0.17874589 0.13576313 0.10978411
-0.17873917 0.13575183 0.10984084
-0.17873210 0.13574015 0.10989923
-0.17872503 0.13572848 0.10995762
-0.17871831 0.13571719 0.11001429
-0.17866420 0.13563053 0.11044497
-0.17865713 0.13561885 0.11050335
-0.17865006 0.13560718 0.11056174
-0.17864299 0.13559550 0.11062013
-0.17863591 0.13558383 0.11067852
-0.17862884 0.13557215 0.11073691
-0.17862177 0.13556048 0.11079529
-0.17861470 0.13554880 0.11085368
-0.17856520 0.13546708 0.11126240
-0.17855813 0.13545540 0.11132079
-0.17855105 0.13544372 0.11137923
-0.17854397 0.13543204 0.11143762
-0.17853690 0.13542037 0.11149601
-0.17836718 0.13514016 0.11289738
-0.17836010 0.13512848 0.11295577
-0.17835303 0.13511681 0.11301416
-0.17827524 0.13498839 0.11365642
-0.17826817 0.13497671 0.11371481
-0.17826110 0.13496504 0.11377320
-0.17825403 0.13495336 0.11383159
-0.17824696 0.13494169 0.11388998
-0.17823988 0.13493000 0.11394842
-0.17823281 0.13491833 0.11400681
-0.17822574 0.13490665 0.11406520
-0.17821866 0.13489498 0.11412359
-0.17820452 0.13487163 0.11424036
-0.17819745 0.13485995 0.11429875
-0.17819038 0.13484828 0.11435714
-0.17818331 0.13483660 0.11441553
-0.17817623 0.13482493 0.11447391
-0.17816916 0.13481325 0.11453230
-0.17816209 0.13480158 0.11459069
-0.17812318 0.13473527 0.11492438
-0.17811610 0.13472360 0.11498277
-0.17808852 0.13467764 0.11521301
-0.17803479 0.13459142 0.11564173
-0.17802772 0.13457974 0.11570012
-0.17798529 0.13450969 0.11605045
-0.17793578 0.13442796 0.11645922
-0.17792871 0.13441628 0.11651761
-0.17792164 0.13440461 0.11657600
-0.17791457 0.13439293 0.11663439
-0.17790750 0.13438126 0.11669278
-0.17790042 0.13436958 0.11675116
-0.17789335 0.13435791 0.11680955
-0.17788628 0.13434623 0.11686794
-0.17781556 0.13422948 0.11745182
-0.17780849 0.13421781 0.11751021
-0.17780142 0.13420613 0.11756860
-0.17779435 0.13419446 0.11762698
-0.17778728 0.13418278 0.11768537
-0.17778020 0.13417110 0.11774382
-0.17777629 0.13416279 0.11778723
-0.17776957 0.13415149 0.11784396
-0.17776249 0.13413981 0.11790240
-0.17769850 0.13403436 0.11842955
-0.17768827 0.13401932 0.11850286
-0.17768119 0.13400765 0.11856125
-0.17767412 0.13399598 0.11861964
-0.17766705 0.13398430 0.11867803
-0.17765998 0.13397263 0.11873642
-0.17765291 0.13396095 0.11879480
-0.17764584 0.13394928 0.11885319
-0.17763876 0.13393760 0.11891158
-0.17763169 0.13392593 0.11896997
-0.17762461 0.13391424 0.11902841
-0.17761754 0.13390256 0.11908680
-0.17761047 0.13389089 0.11914519
-0.17758926 0.13385586 0.11932035
-0.17758218 0.13384419 0.11937874
-0.17757511 0.13383252 0.11943713
-0.17756804 0.13382084 0.11949552
-0.17756097 0.13380917 0.11955391
-0.17755390 0.13379749 0.11961229
-0.17754683 0.13378582 0.11967068
-0.17753975 0.13377414 0.11972907
-0.17753268 0.13376247 0.11978746
-0.17752561 0.13375079 0.11984585
-0.17751854 0.13373912 0.11990423
-0.17751147 0.13372744 0.11996262
-0.17750440 0.13371577 0.12002101
-0.17749732 0.13370409 0.12007940
-0.17749025 0.13369242 0.12013779
-0.17748318 0.13368074 0.12019617
-0.17747611 0.13366907 0.12025456
-0.17746903 0.13365738 0.12031301
-0.17746196 0.13364571 0.12037140
-0.17745489 0.13363403 0.12042978
-0.17744781 0.13362236 0.12048817
-0.17742660 0.13358733 0.12066334
-0.17741953 0.13357566 0.12072172
-0.17741246 0.13356398 0.12078011
-0.17740538 0.13355231 0.12083850
-0.17739831 0.13354063 0.12089689
-0.17739124 0.13352896 0.12095528
-0.17738417 0.13351728 0.12101366
-0.17737710 0.13350561 0.12107205
-0.17737003 0.13349393 0.12113044
-0.17736295 0.13348226 0.12118883
-0.17735588 0.13347058 0.12124722
-0.17734881 0.13345891 0.12130560
-0.17734174 0.13344723 0.12136399
-0.17733467 0.13343556 0.12142238
-0.17732760 0.13342388 0.12148077
-0.17732052 0.13341221 0.12153916
-0.17731345 0.13340052 0.12159760
-0.17730637 0.13338885 0.12165599
-0.17729930 0.13337717 0.12171438
-0.17729223 0.13336550 0.12177277
-0.17725687 0.13330712 0.12206471
-0.17724980 0.13329545 0.12212310
-0.17724273 0.13328377 0.12218148
-0.17723566 0.13327210 0.12223987
-0.17722859 0.13326042 0.12229826
-0.17722151 0.13324875 0.12235665
-0.17721444 0.13323707 0.12241504
-0.17720737 0.13322540 0.12247342
-0.17720030 0.13321372 0.12253181
-0.18130476 0.13989632 0.08914038
-0.18129769 0.13988465 0.08919877
-0.18129061 0.13987297 0.08925715
-0.18128354 0.13986130 0.08931554
-0.18127647 0.13984962 0.08937393
-0.18126940 0.13983795 0.08943232
-0.18126233 0.13982627 0.08949071
-0.18102895 0.13944098 0.09141763
-0.18102188 0.13942930 0.09147602
-0.18101480 0.13941763 0.09153440
-0.18100773 0.13940595 0.09159279
-0.18100066 0.13939428 0.09165118
-0.18099359 0.13938260 0.09170957
-0.18098652 0.13937093 0.09176796
-0.18097945 0.13935925 0.09182634
-0.18095116 0.13931255 0.09205990
-0.18094409 0.13930088 0.09211828
-0.18093702 0.13928920 0.09217667
-0.18092994 0.13927753 0.09223506
-0.18092286 0.13926584 0.09229351
-0.18091579 0.13925417 0.09235189
-0.18090872 0.13924249 0.09241028
-0.18090165 0.13923082 0.09246867
-0.18089458 0.13921914 0.09252706
-0.18088751 0.13920747 0.09258545
-0.18083800 0.13912574 0.09299416
-0.18083093 0.13911407 0.09305255
-0.18082386 0.13910239 0.09311094
-0.18081679 0.13909072 0.09316933
-0.18080972 0.13907904 0.09322771
-0.18080265 0.13906737 0.09328610
-0.18079557 0.13905569 0.09334449
-0.18069656 0.13889223 0.09416198
-0.18068949 0.13888056 0.09422037
-0.18068242 0.13886888 0.09427876
-0.18067535 0.13885721 0.09433714
-0.18066828 0.13884553 0.09439553
-0.18066121 0.13883386 0.09445392
-0.18065413 0.13882218 0.09451231
-0.18064706 0.13881051 0.09457070
-0.18063999 0.13879883 0.09462909
-0.18063292 0.13878716 0.09468747
-0.18062585 0.13877548 0.09474586
-0.18061877 0.13876380 0.09480431
-0.18061170 0.13875212 0.09486270
-0.18060463 0.13874045 0.09492108
-0.18059755 0.13872877 0.09497947
-0.18059048 0.13871710 0.09503786
-0.18058341 0.13870542 0.09509625
-0.18057634 0.13869375 0.09515464
-0.18056927 0.13868207 0.09521302
-0.18056219 0.13867040 0.09527141
-0.18055512 0.13865872 0.09532980
-0.18053391 0.13862370 0.09550496
-0.18052684 0.13861202 0.09556335
-0.18051976 0.13860035 0.09562174
-0.18051269 0.13858868 0.09568013
-0.18050562 0.13857700 0.09573852
-0.18049855 0.13856533 0.09579690
-0.18049148 0.13855365 0.09585529
-0.18048441 0.13854198 0.09591368
-0.18047733 0.13853030 0.09597207
-0.18047026 0.13851863 0.09603046
-0.18046318 0.13850694 0.09608890
-0.18045611 0.13849526 0.09614729
-0.18044904 0.13848359 0.09620568
-0.18044197 0.13847191 0.09626407
-0.18043490 0.13846024 0.09632245
-0.18042783 0.13844856 0.09638084
-0.18042075 0.13843689 0.09643923
-0.18041368 0.13842522 0.09649762
-0.18040661 0.13841354 0.09655601
-0.18039954 0.13840187 0.09661439
-0.18039247 0.13839019 0.09667278
-0.18038540 0.13837852 0.09673117
-0.18037832 0.13836684 0.09678956
-0.18037125 0.13835517 0.09684795
-0.18036418 0.13834349 0.09690633
-0.18033589 0.13829679 0.09713989
-0.18032882 0.13828512 0.09719827
-0.18032175 0.13827344 0.09725666
-0.18031468 0.13826177 0.09731505
-0.18030760 0.13825008 0.09737350
-0.18030053 0.13823841 0.09743188
-0.18029346 0.13822673 0.09749027
-0.18028639 0.13821506 0.09754866
-0.18027931 0.13820338 0.09760705
-0.18027224 0.13819171 0.09766544
-0.18021567 0.13809831 0.09813254
-0.18020860 0.13808663 0.09819093
-0.18020153 0.13807496 0.09824932
-0.18019445 0.13806328 0.09830771
-0.18018738 0.13805161 0.09836609
-0.18018031 0.13803993 0.09842448
-0.18010959 0.13792317 0.09900842
-0.18010251 0.13791150 0.09906681
-0.18009544 0.13789982 0.09912520
-0.18008837 0.13788815 0.09918358
-0.18008130 0.13787647 0.09924197
-0.18001765 0.13777140 0.09976746
-0.18001058 0.13775972 0.09982585
-0.18000351 0.13774805 0.09988424
-0.17999643 0.13773636 0.09994269
-0.17998936 0.13772469 0.10000107
-0.17998229 0.13771301 0.10005946
-0.17997522 0.13770134 0.10011785
-0.17992572 0.13761961 0.10052657
-0.17991864 0.13760794 0.10058495
-0.17991157 0.13759626 0.10064334
-0.17990450 0.13758459 0.10070173
-0.17989743 0.13757291 0.10076012
-0.17989036 0.13756124 0.10081851
-0.17981963 0.13744448 0.10140245
-0.17981256 0.13743280 0.10146083
-0.17980549 0.13742113 0.10151922
-0.17979842 0.13740945 0.10157761
-0.17979135 0.13739778 0.10163600
-0.17972770 0.13729271 0.10216149
-0.17972063 0.13728103 0.10221988
-0.17971356 0.13726936 0.10227827
-0.17970649 0.13725768 0.10233665
-0.17969941 0.13724601 0.10239504
-0.17969234 0.13723432 0.10245349
-0.17968526 0.13722264 0.10251188
-0.17967819 0.13721097 0.10257026
-0.17963576 0.13714092 0.10292059
-0.17962869 0.13712925 0.10297898
-0.17962162 0.13711757 0.10303737
-0.17961455 0.13710590 0.10309576
-0.17960748 0.13709422 0.10315414
-0.17960040 0.13708255 0.10321253
-0.17959333 0.13707087 0.10327092
-0.17956505 0.13702417 0.10350447
-0.17955797 0.13701250 0.10356286
-0.17955090 0.13700082 0.10362125
-0.17954383 0.13698915 0.10367964
-0.17953675 0.13697746 0.10373808
-0.17952968 0.13696579 0.10379647
-0.17952261 0.13695411 0.10385486
-0.17951554 0.13694244 0.10391325
-0.17950847 0.13693076 0.10397163
-0.17950139 0.13691909 0.10403002
-0.17949432 0.13690741 0.10408841
-0.17948725 0.13689574 0.10414680
-0.17948018 0.13688406 0.10420519
-0.17947311 0.13687239 0.10426358
-0.17946604 0.13686071 0.10432196
-0.17945896 0.13684904 0.10438035
-0.17945189 0.13683736 0.10443874
-0.17944482 0.13682569 0.10449713
-0.17943775 0.13681401 0.10455552
-0.17943068 0.13680234 0.10461390
-0.17942360 0.13679066 0.10467229
-0.17942009 0.13678280 0.10471369
-0.17941302 0.13677113 0.10477208
-0.17926095 0.13652213 0.10601527
-0.17925388 0.13651045 0.10607366
-0.17924681 0.13649878 0.10613205
-0.17923973 0.13648710 0.10619044
-0.17913365 0.13631197 0.10706632
-0.17912658 0.13630029 0.10712470
-0.17911951 0.13628862 0.10718309
-0.17911244 0.13627694 0.10724148
-0.17910537 0.13626527 0.10729987
-0.17909829 0.13625359 0.10735826
-0.17909122 0.13624192 0.10741665
-0.17904171 0.13616018 0.10782542
-0.17903464 0.13614851 0.10788381
-0.17902757 0.13613683 0.10794220
-0.17902050 0.13612516 0.10800058
-0.17883663 0.13582160 0.10951873
-0.17882956 0.13580993 0.10957712
-0.17882248 0.13579825 0.10963551
-0.17881541 0.13578658 0.10969389
-0.17880834 0.13577490 0.10975228
-0.17880127 0.13576323 0.10981067
-0.17879420 0.13575155 0.10986906
-0.17878713 0.13573988 0.10992745
-0.17878005 0.13572820 0.10998583
-0.17877298 0.13571653 0.11004422
-0.17871640 0.13562312 0.11051139
-0.17870933 0.13561144 0.11056977
-0.17870226 0.13559977 0.11062816
-0.17869519 0.13558809 0.11068655
-0.17868811 0.13557642 0.11074494
-0.17868104 0.13556474 0.11080333
-0.17867397 0.13555307 0.11086171
-0.17861740 0.13545967 0.11132882
-0.17861032 0.13544798 0.11138726
-0.17860325 0.13543631 0.11144565
-0.17834159 0.13500432 0.11360607
-0.17833452 0.13499265 0.11366446
-0.17832744 0.13498097 0.11372284
-0.17832037 0.13496930 0.11378123
-0.17831330 0.13495762 0.11383962
-0.17830623 0.13494595 0.11389801
-0.17829915 0.13493426 0.11395645
-0.17829208 0.13492259 0.11401484
-0.17828501 0.13491091 0.11407323
-0.17825672 0.13486421 0.11430678
-0.17824965 0.13485254 0.11436517
-0.17824258 0.13484086 0.11442356
-0.17823551 0.13482919 0.11448195
-0.17822843 0.13481751 0.11454033
-0.17822136 0.13480584 0.11459872
-0.17821429 0.13479416 0.11465711
-0.17805871 0.13453731 0.11594170
-0.17805164 0.13452563 0.11600009
-0.17804456 0.13451396 0.11605848
-0.17798798 0.13442055 0.11652564
-0.17798091 0.13440887 0.11658403
-0.17797384 0.13439720 0.11664242
-0.17796677 0.13438552 0.11670081
-0.17795970 0.13437385 0.11675919
-0.17795262 0.13436217 0.11681758
-0.17794555 0.13435050 0.11687597
-0.17787484 0.13423375 0.11745985
-0.17786776 0.13422207 0.11751824
-0.17786069 0.13421040 0.11757663
-0.17785362 0.13419872 0.11763502
-0.17784655 0.13418705 0.11769340
-0.17783947 0.13417536 0.11775185
-0.17783240 0.13416369 0.11781024
-0.17782533 0.13415201 0.11786863
-0.17774047 0.13401191 0.11856928
-0.17773340 0.13400024 0.11862767
-0.17772632 0.13398856 0.11868606
-0.17771925 0.13397689 0.11874445
-0.17771218 0.13396521 0.11880283
-0.17770511 0.13395354 0.11886122
-0.17769804 0.13394186 0.11891961
-0.17769097 0.13393019 0.11897800
-0.17768389 0.13391850 0.11903644
-0.17767682 0.13390683 0.11909483
-0.17766974 0.13389515 0.11915322
-0.17765560 0.13387180 0.11927000
-0.17764853 0.13386013 0.11932838
-0.17764146 0.13384845 0.11938677
-0.17763438 0.13383678 0.11944516
-0.17762731 0.13382510 0.11950355
-0.17762024 0.13381343 0.11956194
-0.17761317 0.13380175 0.11962032
-0.17760610 0.13379008 0.11967871
-0.17759903 0.13377840 0.11973710
-0.17759195 0.13376673 0.11979549
-0.17758488 0.13375505 0.11985388
-0.17757781 0.13374338 0.11991226
-0.17757074 0.13373170 0.11997065
-0.17756367 0.13372003 0.12002904
-0.17755660 0.13370835 0.12008743
-0.17754952 0.13369668 0.12014582
-0.17754245 0.13368500 0.12020421
-0.17753538 0.13367333 0.12026259
-0.17752830 0.13366164 0.12032104
-0.17752123 0.13364997 0.12037943
-0.17751416 0.13363829 0.12043782
-0.17750709 0.13362662 0.12049620
-0.17750002 0.13361494 0.12055459
-0.17749294 0.13360327 0.12061298
-0.17748587 0.13359159 0.12067137
-0.17747880 0.13357992 0.12072976
-0.17747173 0.13356824 0.12078814
-0.17746466 0.13355657 0.12084653
