ply
format ascii 1.0
comment Created by Open3D
element vertex 1720
property double x
property double y
property double z
end_header
0.173603 -0.265397 1.25961
-0.18362 0.355509 0.120253
0.0863452 -0.366476 1.25237
-0.174818 -0.603722 0.336429
0.0872191 -0.302604 1.29466
0.0897077 -0.30271 1.25512
-0.106431 -0.564425 0.328612
-0.0907304 -0.582295 0.345122
0.096619 -0.312947 1.25106
-0.1797 0.408852 0.147818
-0.156473 0.42346 0.134416
-0.225423 0.39019 0.130876
0.0858953 -0.352051 1.23571
0.113299 -0.36433 1.24973
0.150381 -0.308385 1.23437
0.0956782 -0.291577 1.25801
-0.155394 0.444516 0.137847
-0.219814 0.36363 0.127477
-0.202363 0.424334 0.150491
-0.133683 0.433691 0.165794
0.0856251 -0.368092 1.24951
-0.149311 -0.553543 0.31055
0.0999401 -0.300433 1.28974
-0.136205 -0.584166 0.301045
0.127918 -0.353807 1.24898
0.115012 -0.355662 1.21582
0.08883 -0.267218 1.28372
0.0833331 -0.34615 1.23645
0.0754357 -0.361152 1.23179
0.120594 -0.271385 1.25713
0.113289 -0.299127 1.24579
0.155462 -0.354928 1.19699
0.0850946 -0.304142 1.29498
-0.160231 -0.571212 0.340727
0.106165 -0.262531 1.26799
0.091047 -0.339116 1.25299
0.167968 -0.296261 1.24069
-0.199401 0.422158 0.164244
-0.14123 -0.58105 0.295683
0.0975568 -0.350309 1.23783
-0.0985029 -0.553285 0.310684
0.106064 -0.36326 1.25198
-0.15053 0.40425 0.127069
0.150914 -0.355287 1.19897
-0.109751 -0.577734 0.352635
0.093251 -0.270651 1.28727
-0.135993 -0.58372 0.300283
0.12892 -0.314716 1.2303
-0.216793 0.407094 0.12123
0.0879173 -0.304786 1.25495
0.105445 -0.26387 1.27469
-0.193831 0.417541 0.160498
0.139687 -0.293791 1.23859
0.101158 -0.279298 1.30009
-0.123898 -0.539387 0.286732
0.0917904 -0.327672 1.27959
-0.149328 0.416959 0.119237
0.0808562 -0.346619 1.23804
0.150854 -0.336751 1.20854
0.0854123 -0.371657 1.24849
-0.148169 -0.596961 0.341756
-0.150963 -0.593356 0.355623
-0.149374 0.429319 0.132017
0.0810899 -0.356599 1.23302
-0.103572 -0.558237 0.317756
-0.198281 0.412504 0.157974
-0.201578 0.42375 0.150694
0.105636 -0.301708 1.24807
0.0923976 -0.290213 1.26029
0.102884 -0.324118 1.26313
-0.173119 -0.598886 0.359974
0.0874886 -0.286635 1.30278
-0.194662 0.400728 0.150129
0.149317 -0.314172 1.22494
0.080569 -0.351173 1.23684
-0.15948 -0.551442 0.306717
0.107157 -0.278135 1.25947
-0.151757 -0.590653 0.343053
-0.169419 0.418627 0.15283
0.0806895 -0.326543 1.24712
0.105386 -0.359804 1.21828
0.153176 -0.28913 1.23404
0.0871724 -0.29087 1.30075
0.130539 -0.316454 1.22866
0.126724 -0.357477 1.20932
0.0773849 -0.328289 1.24779
0.0760552 -0.351403 1.23651
0.154361 -0.330302 1.21025
0.13792 -0.328458 1.2193
-0.143925 -0.589761 0.31051
0.101168 -0.326294 1.23928
0.13182 -0.352799 1.20931
-0.144328 -0.59033 0.355681
-0.127423 -0.541773 0.290762
0.121013 -0.26741 1.25909
-0.16944 -0.56649 0.332402
-0.153119 -0.596162 0.347463
0.0976547 -0.288706 1.28569
0.128443 -0.354805 1.24821
-0.202661 0.370628 0.130187
0.130837 -0.293014 1.24057
0.0912198 -0.267584 1.287
-0.1472 -0.549505 0.282684
-0.117817 -0.533801 0.277248
0.0961188 -0.291739 1.26115
-0.204367 0.421778 0.158093
0.0833678 -0.31746 1.27559
-0.20737 0.375806 0.135318
0.0775992 -0.353502 1.23469
0.174948 -0.279796 1.26268
0.0813225 -0.361957 1.22906
-0.159396 -0.568381 0.335873
0.136972 -0.26329 1.25459
0.0899561 -0.310747 1.25085
-0.14976 0.420758 0.134542
-0.219798 0.418865 0.163799
-0.154592 -0.560476 0.322146
0.0865088 -0.371486 1.25261
0.134818 -0.286695 1.2464
-0.183989 0.392374 0.121288
0.118368 -0.294299 1.24582
0.0877926 -0.353691 1.22976
0.133724 -0.339561 1.21523
0.0920269 -0.263087 1.2744
-0.169574 -0.616345 0.360336
-0.184181 0.390181 0.115627
-0.182947 -0.61492 0.352975
0.0873752 -0.280447 1.27185
0.0900734 -0.263391 1.27777
-0.177609 0.435721 0.170993
-0.190611 0.369874 0.130051
0.0888619 -0.270213 1.27541
0.122991 -0.310548 1.26416
0.0987403 -0.313774 1.24974
-0.184436 -0.54634 0.297398
0.0860159 -0.32036 1.28609
-0.208824 0.3766 0.128654
-0.104444 -0.600859 0.330493
0.0865589 -0.300952 1.29584
-0.159981 0.440594 0.135202
0.0904808 -0.276923 1.28245
0.085454 -0.325867 1.28343
0.0900035 -0.322299 1.2832
0.150551 -0.316245 1.22321
0.130314 -0.311232 1.23144
-0.136043 -0.596303 0.322649
0.0986003 -0.262242 1.27172
0.0936167 -0.346797 1.2547
-0.146748 -0.597471 0.343209
-0.208709 0.40907 0.153432
-0.153347 0.396617 0.129051
-0.168296 0.418292 0.147043
0.108859 -0.284704 1.25529
0.100666 -0.300203 1.25152
0.110244 -0.261946 1.26638
0.108666 -0.359506 1.25518
-0.096238 -0.583154 0.335847
-0.167985 -0.588671 0.36019
0.1571 -0.305433 1.22448
0.130185 -0.341054 1.21614
0.15312 -0.288733 1.23388
-0.185069 -0.609328 0.34331
0.0797298 -0.355975 1.23634
-0.164425 -0.568416 0.335821
-0.102715 -0.558674 0.320383
0.0870725 -0.361432 1.23678
0.135886 -0.260801 1.25645
0.0915316 -0.312536 1.24918
0.0895803 -0.350358 1.23063
0.135677 -0.292434 1.24871
0.158865 -0.285528 1.25274
-0.218581 0.397958 0.113105
0.135907 -0.295346 1.24892
0.109193 -0.265302 1.26513
-0.164086 -0.608224 0.341857
-0.0991459 -0.551262 0.307465
0.140452 -0.311318 1.22674
0.0826285 -0.318152 1.27554
-0.227512 0.384892 0.105624
-0.11376 -0.57785 0.352616
0.0992004 -0.299993 1.29033
-0.129466 -0.546405 0.29332
-0.152981 -0.596705 0.352062
-0.180577 0.411258 0.148228
0.119684 -0.35909 1.21184
0.0755923 -0.344641 1.24022
0.114486 -0.296062 1.24706
0.108595 -0.299368 1.26023
0.0803907 -0.332041 1.24442
0.0846931 -0.321977 1.26484
-0.110464 -0.576601 0.349196
-0.129432 -0.586245 0.367259
-0.200615 0.420424 0.163242
0.129969 -0.321294 1.22661
0.0975996 -0.281636 1.26287
-0.169587 0.368379 0.127241
-0.0904196 -0.569835 0.339094
0.136159 -0.26674 1.25326
0.0882629 -0.314275 1.24996
0.0905056 -0.356408 1.22707
0.112792 -0.339115 1.2254
-0.218494 0.438846 0.17621
0.0835911 -0.341925 1.23868
-0.167252 0.365938 0.104567
0.0877679 -0.280875 1.30563
0.135814 -0.311721 1.22858
-0.109453 -0.588005 0.366938
0.083054 -0.32008 1.25758
0.0981641 -0.279517 1.26863
0.0885663 -0.290024 1.30051
0.134028 -0.309887 1.23038
-0.108557 -0.588931 0.370738
0.125721 -0.321605 1.22828
0.0875302 -0.267149 1.28298
0.101425 -0.276147 1.30155
0.122312 -0.273764 1.25454
0.143099 -0.267558 1.25362
0.0929857 -0.324508 1.24909
-0.1549 -0.577141 0.351047
0.155402 -0.336319 1.2066
0.159175 -0.337475 1.20422
-0.224226 0.3593 0.125372
0.0889729 -0.280029 1.30547
0.139114 -0.269628 1.25086
-0.165291 0.443766 0.1552
-0.20347 0.377273 0.135854
0.0906785 -0.325178 1.24308
0.0873088 -0.293155 1.29949
0.0833844 -0.339739 1.24067
-0.233437 0.358145 0.124946
-0.160086 0.438678 0.134151
0.0883805 -0.277881 1.27954
0.0905909 -0.347818 1.23146
-0.166315 -0.602623 0.353049
0.104034 -0.265104 1.27494
-0.17432 -0.544378 0.294132
-0.221082 0.383129 0.128227
0.115609 -0.351534 1.21766
-0.104966 -0.536474 0.282015
0.127467 -0.298364 1.23949
0.0976483 -0.284215 1.26123
0.108987 -0.361606 1.2539
0.104111 -0.324243 1.26269
0.112413 -0.263341 1.26459
-0.0923836 -0.581359 0.342705
-0.0948308 -0.59601 0.344671
0.0909037 -0.277105 1.26795
0.0808258 -0.341149 1.24156
0.0988351 -0.357231 1.25939
0.0873134 -0.322584 1.28434
0.0869439 -0.316361 1.28773
0.0975187 -0.289481 1.28535
-0.114107 -0.53351 0.276826
0.0903526 -0.287018 1.2776
0.117391 -0.300248 1.25076
0.091035 -0.322853 1.2441
-0.228915 0.359918 0.126133
-0.219389 0.429694 0.170707
0.0960939 -0.266019 1.28046
0.0860401 -0.326941 1.24437
0.114916 -0.286007 1.25179
-0.165782 -0.553563 0.310231
-0.141157 0.373875 0.127926
0.0934562 -0.358145 1.25359
0.0823798 -0.321941 1.2537
-0.149111 0.429645 0.164599
0.139706 -0.314947 1.22534
0.100378 -0.298489 1.29054
0.12392 -0.362344 1.24648
-0.164391 -0.544411 0.294111
-0.14801 -0.547331 0.278347
0.12842 -0.263661 1.25795
0.120775 -0.316666 1.23317
-0.15067 0.411916 0.122843
0.0818066 -0.352406 1.23411
-0.147449 -0.593629 0.34926
0.0926375 -0.333428 1.24328
0.0869632 -0.296553 1.29791
0.11184 -0.289892 1.2512
-0.11829 -0.57914 0.354596
-0.122094 -0.590521 0.329296
0.0769566 -0.336713 1.24365
0.132204 -0.313211 1.22952
0.0887998 -0.271297 1.28234
0.171602 -0.267894 1.27242
0.0991212 -0.296164 1.25515
0.0916502 -0.266435 1.27287
0.0889806 -0.292731 1.28374
-0.218017 0.398087 0.120084
0.100214 -0.281112 1.26128
-0.119593 -0.538604 0.285477
0.0898873 -0.357419 1.25856
-0.169436 -0.560678 0.322398
-0.149378 -0.538791 0.285159
-0.113455 -0.549418 0.289471
0.126098 -0.281761 1.24863
0.0871078 -0.285112 1.27522
0.0984282 -0.359378 1.25961
-0.0957246 -0.609526 0.345564
0.0788648 -0.360446 1.2356
-0.159493 -0.56468 0.328036
-0.153785 0.429696 0.132709
-0.222024 0.382432 0.129919
-0.121898 -0.584566 0.359792
0.0925928 -0.334802 1.24275
-0.179411 -0.548334 0.300939
-0.189527 0.36399 0.126193
0.125423 -0.325775 1.22627
0.0799746 -0.33677 1.24294
0.127861 -0.354566 1.24861
-0.16657 -0.574165 0.345674
-0.150041 -0.59462 0.351756
0.0932367 -0.287277 1.27919
0.110975 -0.286414 1.25343
0.141984 -0.352975 1.20439
0.0979396 -0.353871 1.22485
0.132372 -0.302936 1.23473
0.0887741 -0.29403 1.28331
0.103288 -0.324073 1.24244
0.113425 -0.339149 1.22508
0.128318 -0.353849 1.24877
0.0958491 -0.269647 1.27895
-0.169408 -0.568443 0.335764
0.120274 -0.265074 1.26035
-0.158676 -0.583514 0.361934
0.133281 -0.295588 1.24999
0.135426 -0.319077 1.22496
-0.179424 0.4231 0.163086
0.090792 -0.311349 1.28844
0.120947 -0.34674 1.2176
-0.195384 0.378587 0.13604
-0.153708 0.377454 0.0960419
0.107613 -0.326443 1.23438
0.154276 -0.285789 1.23873
0.0942002 -0.310891 1.24876
0.0864381 -0.306779 1.29289
0.0895191 -0.266488 1.27698
-0.0921762 -0.597765 0.351633
-0.20471 0.41474 0.15997
0.0979065 -0.279644 1.26884
-0.0900376 -0.571305 0.341867
0.125252 -0.276319 1.25206
0.0982105 -0.288633 1.2855
-0.176804 -0.578971 0.353726
0.116819 -0.306204 1.24047
-0.102218 -0.596728 0.33746
0.136572 -0.321419 1.22342
0.120422 -0.261747 1.26184
0.0930909 -0.337249 1.25327
0.101638 -0.298722 1.28979
0.0902629 -0.280147 1.26941
0.0878957 -0.277021 1.27229
-0.150747 0.370288 0.0928089
-0.0994097 -0.560425 0.32302
0.140562 -0.316871 1.22413
0.100633 -0.355995 1.26059
-0.204471 0.43359 0.171939
0.0839941 -0.321522 1.26663
-0.158295 0.447144 0.139262
0.088793 -0.286274 1.30233
0.0961448 -0.322557 1.24362
-0.179159 -0.622797 0.366641
-0.166403 -0.573817 0.345077
0.0918044 -0.337424 1.25333
-0.20455 0.361268 0.124792
-0.180886 0.448195 0.151334
0.100132 -0.351139 1.22522
-0.139773 0.43326 0.166087
-0.161271 -0.618767 0.367278
0.0886848 -0.301652 1.29445
0.103894 -0.270225 1.26511
-0.245635 0.378734 0.1032
0.116069 -0.282094 1.25361
0.0847673 -0.325521 1.24571
0.154079 -0.339906 1.20539
0.156881 -0.316094 1.21637
0.105741 -0.359266 1.22053
-0.152772 0.416751 0.141095
0.137404 -0.308307 1.22958
-0.189942 0.426029 0.165884
-0.173854 0.44009 0.165814
0.0933996 -0.268145 1.28855
0.0889113 -0.279929 1.2704
-0.214349 0.427503 0.168977
-0.218561 0.387413 0.143723
0.101232 -0.266941 1.26811
-0.156144 0.358269 0.118862
0.0921577 -0.308111 1.28948
0.11313 -0.349323 1.21998
-0.168251 0.417373 0.15563
0.0829592 -0.32886 1.24483
0.122116 -0.342619 1.21916
0.107802 -0.298681 1.26092
-0.199921 0.397807 0.148665
0.12312 -0.264514 1.25995
0.109355 -0.329758 1.2352
0.162751 -0.273617 1.27192
0.0867683 -0.311363 1.25206
-0.150006 0.382424 0.134495
-0.112336 -0.561703 0.32539
-0.210376 0.417302 0.150983
0.0935801 -0.30537 1.29023
0.123385 -0.284927 1.25038
0.0922746 -0.275388 1.28547
0.105191 -0.265956 1.2667
-0.194926 0.413482 0.15804
0.0868745 -0.313097 1.28942
-0.154602 0.359994 0.120557
0.0903591 -0.306436 1.2912
-0.18394 -0.563105 0.326265
0.117896 -0.277951 1.25474
-0.194944 0.35233 0.117873
-0.179434 -0.542934 0.291643
-0.146548 -0.540566 0.288023
0.149184 -0.322866 1.22767
0.150025 -0.275298 1.26593
-0.0908654 -0.565812 0.332577
-0.206643 0.411052 0.155658
-0.11968 -0.537199 0.282634
0.0885527 -0.367386 1.25904
-0.174212 -0.621542 0.370917
-0.233486 0.356844 0.124076
0.125303 -0.352013 1.25114
0.0884766 -0.300192 1.29532
0.0885113 -0.29246 1.29927
-0.176902 -0.624059 0.368834
0.0945306 -0.348781 1.24764
-0.177563 0.414854 0.157651
0.124058 -0.28053 1.25043
0.14411 -0.310706 1.22554
0.0957593 -0.325827 1.24178
0.146959 -0.288455 1.24681
0.135209 -0.346064 1.21117
0.100034 -0.359926 1.22074
-0.222455 0.423013 0.166795
0.145306 -0.346168 1.20633
-0.16996 -0.574916 0.346894
0.0951019 -0.331781 1.24179
0.099879 -0.325251 1.2408
0.158734 -0.276885 1.23715
0.0975507 -0.299091 1.25494
-0.169236 0.438133 0.171798
0.136019 -0.331856 1.21812
0.135711 -0.341587 1.21324
0.102982 -0.364047 1.25051
0.155452 -0.289622 1.24026
0.0950778 -0.335712 1.23561
-0.142178 -0.588549 0.354262
-0.177872 0.423166 0.153347
0.0819511 -0.322623 1.24857
0.0979589 -0.356606 1.25908
0.112955 -0.364709 1.24987
-0.217953 0.408078 0.120286
-0.205076 0.400004 0.150417
0.0825699 -0.318744 1.2503
0.0800568 -0.361284 1.23212
-0.159508 -0.56646 0.332552
0.098514 -0.359657 1.25994
0.0765066 -0.346783 1.23868
0.0879309 -0.272885 1.27426
-0.18485 0.388075 0.141177
0.100276 -0.329756 1.2398
-0.181559 0.376182 0.123285
-0.14921 0.43629 0.136226
-0.168951 0.417227 0.142021
-0.222121 0.392819 0.124076
0.0989461 -0.299001 1.25499
-0.178042 0.426126 0.164899
-0.18937 0.438143 0.173577
0.152217 -0.323745 1.21459
-0.224556 0.3631 0.128185
0.140725 -0.346619 1.20827
0.137319 -0.35694 1.20457
0.110625 -0.271432 1.26143
0.156086 -0.289929 1.23969
0.0963188 -0.336751 1.23444
0.0942629 -0.311349 1.2868
0.0877734 -0.307676 1.25348
-0.191223 0.380652 0.125379
0.137192 -0.326951 1.22258
-0.129834 -0.539738 0.287209
0.0760991 -0.356842 1.23369
0.132513 -0.29576 1.25034
0.157222 -0.268482 1.27031
0.103856 -0.279648 1.26027
-0.171673 -0.600302 0.365675
-0.165405 -0.620367 0.370333
-0.158032 -0.594393 0.365067
0.0992785 -0.331529 1.2415
0.130599 -0.271487 1.25308
0.116852 -0.317775 1.23446
0.10827 -0.313365 1.2408
0.0983735 -0.334502 1.24379
0.13018 -0.274736 1.25119
-0.204525 0.424266 0.166042
0.11347 -0.32935 1.2301
-0.179941 -0.612254 0.351062
0.125615 -0.351498 1.21293
0.105716 -0.271672 1.26352
0.0978577 -0.326793 1.23976
0.102244 -0.360193 1.21955
-0.221988 0.421209 0.164707
0.104312 -0.296623 1.25208
0.172781 -0.266312 1.25966
0.102702 -0.315958 1.2589
0.144222 -0.314902 1.22562
0.0965368 -0.301946 1.29059
-0.221778 0.365499 0.129999
0.10579 -0.281548 1.25839
0.0883893 -0.320103 1.28511
0.104174 -0.291878 1.25391
-0.129473 -0.582849 0.361278
0.116464 -0.321942 1.2325
-0.149827 -0.566352 0.332585
0.0927722 -0.346257 1.25512
0.107251 -0.268215 1.26454
-0.1958 0.415946 0.159956
0.147541 -0.308011 1.23712
0.078817 -0.364187 1.23262
-0.111678 -0.538235 0.285012
-0.164214 0.37478 0.130861
0.102705 -0.36328 1.25071
0.102325 -0.363308 1.24965
-0.163644 0.421418 0.147053
0.101294 -0.352479 1.22397
0.135271 -0.336126 1.21626
0.118636 -0.324471 1.23016
0.105022 -0.36422 1.25116
0.114165 -0.270606 1.26031
0.109068 -0.356065 1.25677
0.12549 -0.306519 1.23616
-0.204004 0.419604 0.157472
0.100581 -0.356425 1.22228
-0.147556 -0.569666 0.313529
0.118769 -0.31457 1.2352
0.105799 -0.305525 1.2461
-0.144379 0.376725 0.130357
-0.124625 -0.559953 0.31127
0.120449 -0.281199 1.2517
0.104322 -0.321086 1.24297
0.124266 -0.260745 1.26129
0.0934457 -0.277188 1.26996
0.128449 -0.348641 1.24254
0.0914906 -0.360846 1.22432
-0.165094 -0.59094 0.363608
0.105713 -0.315907 1.24206
-0.220803 0.393718 0.12279
0.0905797 -0.343151 1.23387
-0.16675 -0.588529 0.359971
-0.169355 -0.573847 0.345067
-0.096278 -0.590362 0.353004
0.120767 -0.316869 1.27134
0.123831 -0.308628 1.26459
-0.204434 0.397744 0.14881
0.126928 -0.327993 1.22441
0.10941 -0.27471 1.26121
-0.125146 -0.558717 0.306292
0.0912566 -0.286995 1.28017
-0.12195 -0.568781 0.328204
0.152563 -0.27874 1.25092
-0.193949 0.404572 0.140691
-0.187532 -0.5576 0.316713
-0.122011 -0.573411 0.332014
0.156106 -0.276699 1.2374
-0.185715 0.440891 0.175012
0.107823 -0.299275 1.26069
-0.143825 0.372997 0.127819
0.119174 -0.274991 1.25548
-0.183229 -0.566541 0.332193
0.114923 -0.279991 1.25533
-0.194432 0.358562 0.123157
0.106296 -0.313123 1.24267
0.152316 -0.279719 1.25082
-0.151359 -0.587561 0.333273
-0.134912 -0.585446 0.364178
0.107541 -0.287375 1.25477
0.108784 -0.298472 1.26062
-0.127731 -0.578202 0.35302
0.088285 -0.296015 1.29755
-0.198935 0.403516 0.152154
0.123543 -0.31012 1.26401
-0.170735 0.35911 0.0869814
-0.164402 -0.540485 0.287589
-0.227346 0.387161 0.107027
0.110819 -0.276731 1.25846
0.106444 -0.298826 1.24915
0.153228 -0.286094 1.24572
0.161133 -0.334678 1.21724
0.0888449 -0.309656 1.29028
-0.121668 -0.583144 0.299599
-0.214223 0.372999 0.124393
0.0945775 -0.334541 1.24149
0.15022 -0.280496 1.26387
-0.143091 -0.586015 0.339271
0.111877 -0.321514 1.27212
0.109781 -0.353063 1.25796
0.0925014 -0.310879 1.28321
-0.159451 -0.569827 0.338361
0.112764 -0.317696 1.26857
0.158958 -0.279381 1.23522
-0.140991 -0.588563 0.308511
-0.12712 -0.558908 0.307815
0.143939 -0.300304 1.23069
0.0891187 -0.282364 1.30418
0.112465 -0.320718 1.26785
-0.170698 0.414902 0.157011
0.0929023 -0.346779 1.25474
0.112396 -0.318897 1.26996
0.0895292 -0.360182 1.22559
0.106462 -0.316932 1.23982
-0.218697 0.395828 0.119111
0.133829 -0.270077 1.26179
-0.16494 -0.586471 0.357075
-0.100001 -0.581176 0.359162
-0.168971 0.37164 0.129138
-0.169438 -0.5723 0.342401
0.130209 -0.286039 1.24596
-0.0938761 -0.590927 0.35813
0.135364 -0.355783 1.2061
0.112381 -0.273194 1.25954
0.079614 -0.330394 1.24565
0.110036 -0.301272 1.24623
0.11797 -0.303804 1.24113
-0.196339 0.400601 0.139003
0.0992354 -0.273485 1.29265
0.147125 -0.348097 1.20446
-0.184789 0.403569 0.147313
0.135533 -0.31575 1.22663
0.124491 -0.335864 1.22154
-0.154353 -0.54025 0.287563
0.0869743 -0.273208 1.27884
-0.200365 0.378286 0.135386
0.113896 -0.260794 1.26521
0.120846 -0.276903 1.25389
-0.109761 -0.558677 0.312403
-0.152164 0.404359 0.127837
0.101514 -0.29653 1.25344
-0.0969132 -0.597094 0.324141
-0.203497 0.412739 0.153621
0.0932777 -0.359164 1.26268
-0.179401 0.438658 0.173028
-0.149805 0.406396 0.118034
0.113925 -0.323356 1.27008
-0.174136 -0.573877 0.345015
0.115856 -0.262075 1.26362
0.177254 -0.267943 1.26977
-0.096276 -0.608771 0.344252
0.11184 -0.283253 1.25461
-0.178794 0.417313 0.159331
0.137249 -0.318134 1.22459
-0.202383 0.405631 0.120186
-0.18952 0.434219 0.171082
0.113875 -0.323988 1.26994
0.126659 -0.338518 1.21912
-0.154376 -0.54281 0.291969
-0.174267 -0.596769 0.354387
0.0981995 -0.29211 1.26046
0.147271 -0.2662 1.26459
0.108651 -0.316564 1.24123
-0.217707 0.442544 0.178436
-0.214705 0.445052 0.180203
-0.199336 0.370229 0.130418
0.115566 -0.266144 1.26166
0.0837834 -0.320196 1.25711
0.0966399 -0.271984 1.26768
0.116237 -0.271554 1.25883
0.105488 -0.308003 1.24485
0.115557 -0.276341 1.25685
-0.169472 -0.564492 0.328963
0.0951022 -0.321327 1.24784
0.0981412 -0.350742 1.23827
-0.155204 0.368496 0.0912313
0.112173 -0.297088 1.24737
-0.153313 0.415218 0.140432
0.13562 -0.300778 1.23631
-0.124972 -0.583763 0.361237
0.0944166 -0.263517 1.27676
0.108635 -0.322119 1.23614
0.140287 -0.341155 1.21129
0.105672 -0.348767 1.22381
0.106989 -0.343906 1.22984
0.11422 -0.274074 1.26
0.115592 -0.29051 1.25228
0.164176 -0.269148 1.27535
0.120696 -0.301904 1.24102
0.110482 -0.330704 1.23138
-0.214044 0.436432 0.174657
-0.201777 0.405088 0.120169
0.155526 -0.327138 1.21127
0.13669 -0.281366 1.2442
0.116266 -0.338267 1.22418
-0.227878 0.415086 0.126957
-0.142044 -0.560412 0.299418
0.1009 -0.276662 1.26322
-0.175175 -0.577512 0.351249
-0.139448 -0.586565 0.367454
-0.101075 -0.576593 0.35126
0.105551 -0.32196 1.26276
0.1132 -0.363432 1.25007
-0.174459 -0.564519 0.328901
-0.114728 -0.555608 0.314849
0.126417 -0.272601 1.25376
0.133634 -0.349471 1.21017
0.12529 -0.316146 1.23129
-0.141361 0.376601 0.130012
-0.169548 0.358994 0.12124
0.0941885 -0.349529 1.24776
0.113163 -0.364174 1.25012
-0.219972 0.356704 0.123929
0.105421 -0.286268 1.25636
0.113357 -0.32111 1.24676
0.137352 -0.272883 1.24936
0.139263 -0.305043 1.23069
-0.209489 0.442938 0.178414
0.111696 -0.332714 1.22921
-0.16484 -0.563247 0.326273
0.117374 -0.268464 1.2596
0.153407 -0.278633 1.25049
0.105186 -0.325241 1.23674
-0.164477 -0.542872 0.291763
-0.101501 -0.596552 0.337187
0.120352 -0.323017 1.26833
0.130584 -0.281512 1.24689
-0.184879 0.406324 0.115483
-0.179448 -0.54979 0.303444
-0.134363 -0.540175 0.286911
0.127855 -0.349789 1.24268
0.112297 -0.323614 1.23362
0.156356 -0.271644 1.27307
-0.202298 0.350345 0.118597
-0.115006 -0.545526 0.288303
0.110598 -0.356442 1.21752
-0.135207 -0.588327 0.370723
-0.179383 -0.572397 0.342354
-0.179488 -0.557702 0.317061
-0.132485 -0.586672 0.319985
-0.179965 0.366872 0.127014
0.113601 -0.317367 1.26735
0.140456 -0.301379 1.23211
-0.209522 0.439246 0.176058
0.110294 -0.359519 1.21608
0.0961101 -0.332253 1.23753
0.155772 -0.314705 1.22636
0.117062 -0.298224 1.25021
0.116276 -0.31566 1.23582
0.161929 -0.313795 1.21839
0.111431 -0.348547 1.22119
-0.228337 0.393333 0.148048
0.117245 -0.307853 1.23938
-0.149324 0.372877 0.128331
0.126892 -0.290983 1.24349
0.11857 -0.291845 1.24731
0.116699 -0.327604 1.22947
0.1508 -0.326819 1.21368
-0.128023 -0.561229 0.306748
0.102121 -0.273088 1.26446
0.171706 -0.274311 1.26224
0.120264 -0.311138 1.23626
-0.148418 -0.551913 0.307764
0.113153 -0.359073 1.21495
0.115325 -0.359298 1.2138
0.133191 -0.296707 1.23996
0.130655 -0.346543 1.21309
-0.242627 0.396736 0.114442
0.122101 -0.363362 1.24682
0.120211 -0.321123 1.23117
0.121953 -0.303515 1.23938
-0.152559 0.400334 0.146058
0.136595 -0.284885 1.24403
0.115471 -0.339283 1.22404
0.122506 -0.298376 1.24229
-0.213621 0.353841 0.121557
0.126073 -0.28576 1.24673
-0.218866 0.350706 0.120165
-0.182248 -0.606925 0.3395
0.117417 -0.348491 1.21837
0.120159 -0.330848 1.22617
-0.14772 -0.569622 0.315584
0.120012 -0.350864 1.21592
-0.12035 -0.571413 0.336654
-0.224062 0.378063 0.138152
-0.164496 -0.58471 0.354472
-0.102641 -0.574337 0.347342
-0.123301 -0.571813 0.342555
-0.160414 -0.593274 0.365944
0.162345 -0.286888 1.24368
-0.117802 -0.583107 0.343494
0.165887 -0.272286 1.27072
-0.17442 -0.548309 0.301002
0.166989 -0.270347 1.26809
-0.174438 -0.546223 0.297405
-0.158952 -0.5848 0.363755
-0.193965 0.431406 0.169676
0.147044 -0.271498 1.24396
-0.169517 -0.559083 0.319651
-0.149374 -0.537977 0.283758
-0.10033 -0.548335 0.301923
-0.194663 0.367866 0.128775
-0.164456 -0.569864 0.338316
-0.169442 -0.55769 0.317188
-0.158266 -0.58557 0.36519
-0.18937 0.367828 0.128546
-0.139039 -0.59664 0.322689
-0.169484 -0.555219 0.31279
-0.114448 -0.581329 0.357398
-0.2046 0.413271 0.158327
-0.161406 -0.624245 0.369487
0.166177 -0.277493 1.2688
-0.174489 -0.542925 0.291649
-0.143301 -0.574697 0.347089
-0.160769 -0.579812 0.355518
-0.201395 0.420167 0.157402
-0.124187 -0.573558 0.345539
0.143138 -0.293928 1.23553
-0.114607 -0.577222 0.34381
-0.169849 -0.55369 0.310313
-0.159932 -0.579192 0.354469
-0.165138 0.367435 0.123796
-0.169458 -0.552073 0.307391
-0.174313 -0.541045 0.288419
-0.164563 -0.609299 0.343698
0.0901824 -0.320884 1.24635
-0.164385 -0.564712 0.328727
-0.157187 -0.598432 0.371482
-0.156608 -0.598605 0.371665
-0.156023 -0.599253 0.372614
-0.158622 -0.577706 0.351918
0.168824 -0.274718 1.27028
-0.169483 -0.549759 0.303497
-0.173453 0.43982 0.145012
-0.109047 -0.533272 0.276445
-0.154856 -0.585564 0.362569
-0.158185 -0.587494 0.356774
-0.225091 0.365334 0.130185
-0.169402 -0.548293 0.301006
0.0910648 -0.295609 1.25812
-0.200316 0.349983 0.117837
-0.156351 -0.583585 0.36208
-0.155041 -0.596713 0.366474
0.168364 -0.280191 1.26519
-0.169421 -0.546302 0.297401
-0.16458 -0.557704 0.317231
-0.113602 -0.558721 0.32023
-0.16928 -0.544483 0.29398
-0.191709 0.378724 0.123835
-0.165001 -0.555034 0.312765
-0.169519 -0.542903 0.291687
-0.155204 -0.551125 0.306261
-0.153867 -0.58139 0.357844
-0.145919 -0.551675 0.307408
-0.164074 -0.624209 0.369444
-0.116637 -0.541462 0.276358
-0.148729 -0.568411 0.321473
-0.20815 0.393871 0.146934
0.092178 -0.359471 1.25628
-0.162503 -0.607004 0.339789
-0.15455 -0.576387 0.349212
0.160992 -0.323331 1.21063
-0.21605 0.398909 0.11349
-0.15353 -0.589195 0.362395
-0.20454 0.439588 0.175837
-0.18241 0.44112 0.174867
-0.158479 -0.563105 0.326496
-0.15973 -0.561162 0.322552
-0.164249 -0.548253 0.301107
-0.145947 -0.55241 0.27363
-0.151411 -0.595996 0.366337
-0.151628 -0.594597 0.364194
-0.199572 0.442382 0.177112
-0.153002 -0.582882 0.353823
0.0823006 -0.319269 1.27508
-0.164384 -0.546195 0.297371
0.149921 -0.29015 1.24598
-0.146069 -0.55195 0.286531
-0.156824 -0.570752 0.340009
-0.156297 -0.56963 0.338089
-0.158803 -0.559633 0.318986
-0.159682 -0.557547 0.31684
-0.1533 -0.59299 0.353079
-0.155354 -0.568295 0.335811
-0.149223 -0.588069 0.365647
-0.159458 -0.555236 0.313164
-0.152965 -0.598954 0.354042
-0.0921533 -0.569809 0.339775
-0.228339 0.365543 0.130175
-0.151913 -0.576748 0.350434
0.0747787 -0.354875 1.23533
-0.181987 0.422108 0.162677
-0.1562 -0.564422 0.329127
0.0986155 -0.312125 1.25085
-0.149796 -0.592685 0.353818
-0.152547 -0.57936 0.345618
-0.152457 -0.581089 0.342577
-0.145015 -0.553537 0.310633
0.0876336 -0.371396 1.25619
-0.156369 -0.562985 0.32665
-0.14854 -0.592665 0.360814
-0.153309 -0.592218 0.345105
-0.153085 -0.591767 0.343312
-0.155419 0.447225 0.139032
-0.218676 0.366865 0.128643
-0.154518 -0.594801 0.341144
-0.143875 -0.586274 0.366863
0.155416 -0.352288 1.19839
-0.159459 -0.549654 0.303529
-0.136866 -0.590166 0.347953
-0.189463 0.358767 0.12285
-0.15474 -0.594168 0.339142
0.0776883 -0.34361 1.23975
-0.202597 0.423132 0.149651
-0.151114 -0.59694 0.347779
-0.159273 -0.548215 0.301145
-0.133751 -0.585227 0.317273
-0.155252 -0.559296 0.31958
-0.159435 -0.546024 0.297392
-0.189332 0.353139 0.119241
0.105247 -0.27627 1.26153
-0.157913 -0.55388 0.310945
-0.136289 -0.593474 0.317064
-0.152175 -0.582835 0.339161
-0.0961609 -0.553664 0.311261
-0.154368 -0.557489 0.317197
-0.228189 0.370974 0.126916
-0.187609 0.411612 0.148324
-0.152101 -0.600253 0.342692
-0.187214 0.420466 0.153185
-0.151631 -0.599072 0.345041
-0.109016 -0.562425 0.326537
-0.151416 -0.60099 0.341967
-0.161664 0.399229 0.139405
-0.190565 0.439638 0.146429
-0.109636 -0.56053 0.322776
-0.159464 -0.544258 0.294352
-0.154308 -0.55518 0.313221
-0.152804 -0.603123 0.337774
-0.153722 -0.602891 0.332897
-0.184432 -0.54837 0.300893
-0.159462 -0.542814 0.291866
-0.153149 -0.604202 0.335458
-0.181451 0.38581 0.113685
-0.120122 -0.558674 0.302549
-0.161215 0.40349 0.141985
-0.191775 0.404884 0.139258
0.174986 -0.275659 1.26414
-0.1522 -0.584847 0.335886
-0.144473 -0.556524 0.315785
-0.0960059 -0.555309 0.313902
-0.171097 0.37376 0.096579
0.0969936 -0.355952 1.22423
-0.162585 -0.538884 0.285035
-0.184451 -0.549823 0.303392
-0.0945871 -0.560744 0.323555
-0.159448 -0.540306 0.28755
0.0867177 -0.36477 1.23525
-0.151661 -0.602466 0.338927
-0.154276 -0.600903 0.329465
-0.0922921 -0.570155 0.340341
-0.229297 0.363077 0.127994
-0.189897 0.419371 0.146346
-0.184116 -0.611704 0.347413
-0.152046 -0.586422 0.333455
0.114805 -0.331651 1.22831
-0.144583 -0.555173 0.313457
0.0777591 -0.362906 1.22978
-0.096588 -0.556701 0.315657
0.169243 -0.281162 1.26436
-0.141477 -0.599222 0.372733
-0.141535 -0.598679 0.371412
-0.159355 -0.538858 0.28506
-0.214438 0.433555 0.172853
0.0884097 -0.375998 1.25627
-0.218373 0.350608 0.119728
-0.142894 -0.588367 0.35856
0.173426 -0.269992 1.27053
-0.170404 -0.621626 0.366211
-0.154597 -0.549618 0.303681
-0.139003 -0.58814 0.370319
-0.151668 -0.604193 0.335366
-0.170693 0.364708 0.0876421
0.0876907 -0.283145 1.30447
-0.139312 -0.586284 0.362897
-0.146066 -0.593039 0.349553
-0.15158 -0.60397 0.334802
-0.133706 0.431682 0.164544
0.0865085 -0.364983 1.23298
-0.150217 -0.60311 0.33335
-0.154394 -0.548174 0.301201
-0.114436 -0.583397 0.360998
-0.154458 -0.545957 0.297383
-0.149687 -0.556746 0.316055
-0.139063 -0.586621 0.358573
-0.09453 -0.56276 0.327502
-0.149452 -0.555005 0.313064
-0.182898 0.403713 0.143614
-0.154476 -0.544229 0.29441
-0.0910018 -0.581309 0.343455
-0.161243 -0.619654 0.370155
-0.0912411 -0.563206 0.32843
0.0875128 -0.274672 1.28009
-0.138893 -0.589656 0.357627
0.142507 -0.303499 1.22963
-0.145974 -0.566147 0.332315
0.0868861 -0.276649 1.27869
-0.139776 -0.589276 0.352789
-0.140827 -0.588754 0.353462
-0.135422 -0.589201 0.372221
-0.159087 0.417137 0.138663
-0.134414 -0.586428 0.367448
-0.0980147 -0.603884 0.335803
0.095541 -0.354809 1.22551
-0.161953 -0.538781 0.284872
-0.14181 -0.574948 0.347553
-0.148347 -0.56824 0.319367
0.143828 -0.34961 1.20526
-0.142693 -0.570016 0.338646
0.0816396 -0.311439 1.25526
-0.154181 -0.538267 0.284154
-0.142788 -0.586524 0.341024
0.165243 -0.289875 1.24012
-0.195611 0.375649 0.124287
-0.149425 -0.548151 0.301267
-0.143781 -0.569546 0.329114
-0.178281 0.408203 0.150019
-0.141718 -0.587468 0.342131
-0.10279 -0.546496 0.29942
0.0843075 -0.336908 1.24155
-0.141513 -0.570312 0.338557
-0.161608 0.41935 0.145367
-0.135318 -0.585202 0.358376
-0.141007 0.436452 0.168236
-0.138417 -0.590842 0.347839
-0.124848 -0.534787 0.278794
-0.13621 -0.589411 0.358606
0.0868481 -0.281192 1.27685
-0.141912 -0.586172 0.339841
-0.0984061 -0.564759 0.330948
0.0964189 -0.314966 1.28385
-0.104093 -0.547843 0.301712
-0.159158 0.376502 0.131516
-0.149513 -0.544196 0.294458
-0.149428 -0.542745 0.291963
-0.146778 -0.569915 0.315767
-0.18484 0.368067 0.127988
-0.146354 -0.569558 0.313491
-0.149444 -0.540252 0.287647
-0.138279 -0.593012 0.342406
-0.190328 0.441629 0.144802
-0.138843 -0.595118 0.336678
-0.144932 -0.549445 0.303591
-0.11657 -0.541675 0.274325
0.142274 -0.323037 1.21968
-0.130281 -0.613211 0.36586
-0.13933 -0.598126 0.326048
-0.140073 -0.584223 0.328025
-0.139703 -0.583125 0.326574
-0.141802 -0.55638 0.315594
-0.132313 -0.582521 0.354085
-0.100327 -0.598241 0.326043
-0.137967 -0.59659 0.332728
-0.199529 0.400426 0.150262
-0.136822 -0.593563 0.340394
-0.187159 0.374882 0.132194
-0.136916 -0.593749 0.339853
-0.140381 0.439431 0.13679
0.0932496 -0.35933 1.2544
-0.137071 -0.593924 0.339333
-0.150188 0.42078 0.135017
-0.143569 -0.589158 0.30948
-0.136802 -0.594873 0.337013
-0.186219 0.432024 0.169388
-0.124369 -0.586431 0.367245
-0.136216 -0.596471 0.332283
-0.138522 -0.59449 0.318765
-0.197981 0.400339 0.138479
0.165596 -0.276364 1.27048
-0.167096 -0.608443 0.342167
-0.139101 -0.593212 0.316573
-0.130166 -0.580448 0.315295
-0.199602 0.393924 0.146213
-0.190523 0.412608 0.153837
-0.146853 -0.538781 0.285195
-0.147553 -0.542173 0.282623
-0.224683 0.385229 0.118782
-0.185012 0.434704 0.170995
-0.123922 -0.58461 0.363069
-0.146063 -0.550309 0.283313
-0.147528 -0.548571 0.280578
-0.11041 -0.579101 0.354653
-0.140969 -0.589152 0.309525
0.145354 -0.336222 1.21142
-0.146439 -0.57679 0.28813
-0.209632 0.368428 0.126456
-0.124091 -0.588007 0.37041
-0.140968 -0.5897 0.310469
-0.199122 0.391497 0.144614
-0.146301 -0.577895 0.290035
-0.184812 0.441505 0.175325
-0.124832 -0.581974 0.356745
-0.141122 -0.560786 0.300287
-0.12416 -0.579828 0.35456
-0.15679 -0.585461 0.365042
-0.137291 -0.583623 0.316714
-0.197431 0.40475 0.139904
-0.12432 -0.577951 0.352657
-0.143556 -0.599183 0.372139
-0.194008 0.373898 0.132439
-0.137748 -0.583852 0.314827
0.125643 -0.34153 1.21805
-0.145951 -0.555293 0.276205
-0.135895 -0.59448 0.318804
-0.137288 -0.58398 0.315036
-0.137509 -0.584484 0.31294
-0.142272 -0.58058 0.295635
-0.167455 0.368648 0.0916943
-0.190935 0.385065 0.124794
-0.143962 -0.557044 0.281596
0.123614 -0.339408 1.22011
-0.189225 0.431736 0.169469
-0.146572 -0.554771 0.274305
-0.13235 -0.591029 0.33182
0.0936023 -0.357507 1.26334
-0.167328 -0.609329 0.3439
-0.137215 -0.578364 0.311895
-0.142217 -0.580395 0.294427
-0.135766 -0.586289 0.312991
-0.136139 -0.5777 0.311809
-0.13671 -0.579 0.312749
-0.179803 0.364908 0.125834
-0.169667 0.356365 0.119571
-0.141561 -0.580375 0.294406
-0.197971 0.402878 0.139031
0.1574 -0.279426 1.23502
-0.122936 -0.584804 0.358667
0.154048 -0.315657 1.2217
-0.199567 0.424332 0.165648
-0.144863 -0.552956 0.276452
-0.199452 0.433574 0.171545
-0.150681 0.42036 0.125411
-0.138571 -0.537757 0.281287
-0.135041 -0.5881 0.308584
-0.111292 -0.552356 0.292021
-0.142297 -0.548611 0.280971
-0.14183 -0.549247 0.282289
-0.139386 -0.544625 0.283856
-0.100574 -0.599047 0.327424
-0.138482 -0.545795 0.287035
0.147912 -0.35642 1.19979
0.10141 -0.280358 1.29939
-0.134647 -0.574386 0.309539
0.106832 -0.34422 1.2303
-0.129593 -0.536945 0.282273
0.160969 -0.279592 1.27014
-0.137263 -0.584185 0.301055
0.169411 -0.268897 1.26911
-0.119252 -0.581034 0.357139
-0.133601 -0.573347 0.310455
-0.152128 0.422508 0.12796
-0.118488 -0.583465 0.361004
-0.118125 -0.595379 0.365923
-0.188 0.392326 0.144171
-0.119585 -0.577623 0.352458
0.117354 -0.294181 1.25594
-0.131875 -0.584915 0.317769
0.14107 -0.297817 1.23368
-0.135699 -0.583278 0.299529
-0.110714 -0.544157 0.290801
-0.12123 -0.575448 0.348412
-0.18439 0.438465 0.173344
-0.12277 -0.569625 0.337807
0.168316 -0.290953 1.23767
-0.130032 -0.579742 0.314036
-0.199419 0.391897 0.134813
-0.224581 0.388589 0.117938
-0.136523 -0.539503 0.284261
-0.114765 -0.585916 0.365228
0.16123 -0.315486 1.21728
-0.121287 -0.573517 0.345531
-0.114385 -0.585151 0.363416
0.16881 -0.296431 1.23933
-0.130076 -0.566225 0.307619
0.100994 -0.322974 1.24332
-0.134438 -0.537224 0.282304
-0.115853 -0.595099 0.365514
-0.122997 -0.568268 0.335433
-0.123067 -0.567924 0.334325
-0.134917 -0.576773 0.28835
0.0764049 -0.334392 1.24512
-0.1085 -0.543149 0.291564
0.102755 -0.323696 1.23951
-0.133661 -0.538691 0.285324
-0.121694 -0.568654 0.336023
-0.114193 -0.579289 0.354486
-0.139319 -0.541556 0.282341
-0.221173 0.411704 0.159479
-0.20438 0.363643 0.126235
-0.122852 -0.590546 0.33063
0.147353 -0.328291 1.21456
-0.118748 -0.568681 0.333811
-0.128625 -0.579991 0.307617
-0.117767 -0.583322 0.346343
-0.119875 -0.587195 0.338093
-0.125673 -0.558442 0.310924
-0.167362 0.398249 0.142896
-0.144228 -0.598504 0.370902
0.124515 -0.33562 1.22808
-0.121685 -0.574032 0.328512
0.145439 -0.326311 1.21649
-0.142879 -0.585396 0.363388
-0.121766 -0.568794 0.328151
0.107046 -0.344374 1.22966
-0.0979719 -0.56405 0.329738
-0.130312 -0.538656 0.285336
-0.11644 -0.583132 0.346489
-0.198289 0.37622 0.134783
-0.157918 0.42994 0.165564
-0.127756 -0.582539 0.303087
-0.129146 -0.546455 0.294934
-0.109343 -0.587008 0.363321
-0.176477 -0.620453 0.364844
-0.1931 0.382889 0.124814
-0.178591 0.398488 0.147147
0.157503 -0.274014 1.26819
-0.122038 -0.569994 0.323362
-0.11257 -0.575148 0.338637
-0.207174 0.414441 0.159995
-0.121363 -0.569768 0.323425
-0.126083 -0.558074 0.304577
-0.109478 -0.582703 0.361229
-0.170298 0.405936 0.113951
-0.177194 0.395239 0.145081
-0.109437 -0.580521 0.357484
-0.108181 -0.589704 0.372007
0.0885134 -0.280443 1.27914
-0.164895 0.434711 0.169228
-0.124428 -0.586821 0.306036
-0.19949 0.439972 0.175604
-0.123603 -0.585083 0.303046
0.109985 -0.35246 1.22783
-0.115306 -0.567731 0.332518
-0.206957 0.421313 0.156844
-0.211431 0.393986 0.142879
-0.149396 -0.56733 0.325058
-0.116597 -0.568385 0.334907
-0.209052 0.421455 0.164644
-0.126408 -0.541861 0.290936
-0.121311 -0.561859 0.307782
-0.119444 -0.535388 0.278517
-0.103279 -0.586802 0.3672
-0.123851 -0.538634 0.285438
-0.124184 -0.536942 0.282512
0.105466 -0.351902 1.22229
0.138778 -0.344616 1.21023
-0.0990449 -0.571128 0.341509
-0.105043 -0.582677 0.361433
-0.153982 0.428755 0.164459
-0.121895 -0.585752 0.304994
-0.154615 0.430206 0.165443
-0.121743 -0.585177 0.303918
-0.121554 -0.583382 0.301309
-0.212741 0.371196 0.125733
-0.111168 -0.574808 0.338537
-0.102388 -0.589309 0.371421
0.128685 -0.266347 1.25655
-0.196344 0.361054 0.124918
-0.106817 -0.578857 0.355033
-0.160176 0.426681 0.138828
-0.108895 -0.570427 0.337485
-0.158243 0.428616 0.164746
-0.110224 -0.569142 0.333205
0.114604 -0.335862 1.22634
-0.110362 -0.568771 0.335333
-0.112863 -0.56021 0.32276
0.105633 -0.322855 1.23749
-0.168959 0.434344 0.169351
-0.101437 -0.590316 0.370882
-0.113618 -0.556942 0.317167
0.091299 -0.361852 1.262
-0.120806 -0.539801 0.287498
-0.117447 -0.539924 0.278051
-0.102111 -0.58959 0.368918
-0.105023 -0.573043 0.342063
-0.105214 -0.570742 0.33782
-0.102231 -0.589602 0.357265
0.110159 -0.354041 1.22712
-0.115614 -0.545335 0.296896
-0.103024 -0.573355 0.345644
-0.195265 0.406629 0.145538
-0.101052 -0.590044 0.357768
-0.114794 -0.545518 0.291746
-0.155932 0.419119 0.156777
-0.159149 0.422864 0.155722
-0.107141 -0.564109 0.329224
-0.0985197 -0.589556 0.352206
-0.157742 0.434718 0.133818
-0.110699 -0.556927 0.317045
-0.189591 0.435509 0.146529
-0.165462 0.435862 0.170013
-0.108608 -0.560962 0.316592
-0.18407 0.407876 0.147609
-0.096616 -0.586362 0.36817
-0.107029 -0.584343 0.328412
-0.222275 0.392156 0.109721
-0.104818 -0.572848 0.330564
-0.198309 0.409566 0.156087
-0.1091 -0.559749 0.31324
-0.104956 -0.599767 0.328575
-0.160133 0.424649 0.144484
-0.107202 -0.564291 0.321363
-0.105316 -0.598475 0.326337
-0.179407 -0.568505 0.335657
-0.0989987 -0.604375 0.351053
-0.144392 -0.568877 0.328452
-0.099591 -0.603865 0.350157
-0.157575 -0.595012 0.363838
-0.0991687 -0.569794 0.339354
-0.186147 0.385963 0.139941
-0.191047 0.441256 0.147998
-0.101335 -0.597557 0.340026
-0.0933029 -0.592537 0.361609
-0.112868 -0.538312 0.285118
-0.101485 -0.5956 0.334829
-0.199457 0.428658 0.168403
-0.0984617 -0.584486 0.342752
-0.0971344 -0.588488 0.349629
-0.0967953 -0.588764 0.35022
-0.0968163 -0.588505 0.349696
0.123898 -0.309671 1.23529
-0.107604 -0.547735 0.30145
-0.203107 0.404977 0.119291
-0.0990779 -0.56221 0.326547
-0.109287 -0.536664 0.28236
-0.11257 -0.534307 0.278232
0.0919561 -0.354588 1.26563
-0.119593 -0.544016 0.294792
-0.102156 -0.596015 0.322172
-0.0978792 -0.604622 0.337078
-0.0989618 -0.602248 0.332968
-0.0960504 -0.609039 0.344719
-0.239874 0.399507 0.115994
-0.219432 0.396441 0.14516
-0.108912 -0.53458 0.278732
-0.0883807 -0.591817 0.361104
-0.14799 -0.553532 0.272319
-0.185279 0.373026 0.131231
-0.215084 0.411527 0.15883
-0.0888487 -0.589873 0.359134
-0.103555 -0.549297 0.304226
-0.094501 -0.596515 0.345912
-0.0970791 -0.591354 0.336764
-0.0960508 -0.590663 0.336758
-0.0958353 -0.584474 0.337196
-0.100042 -0.559297 0.319669
-0.099081 -0.554892 0.313782
-0.102821 -0.549997 0.305445
0.122006 -0.322927 1.22936
-0.0941157 -0.56559 0.332453
-0.0961638 -0.582812 0.334719
-0.103954 -0.542191 0.291634
-0.0900004 -0.588799 0.357536
-0.124015 -0.575069 0.34804
-0.177024 0.44259 0.16337
0.086049 -0.31085 1.29099
-0.0912196 -0.598037 0.352001
-0.0942199 -0.564085 0.329469
-0.205861 0.371705 0.129745
-0.0927748 -0.567556 0.335653
-0.229115 0.368395 0.131701
-0.0999242 -0.549595 0.304071
0.166676 -0.29085 1.23804
-0.149433 -0.545902 0.297397
-0.195284 0.371486 0.129262
0.130744 -0.306846 1.23352
-0.103893 -0.546537 0.282162
0.0771587 -0.331507 1.24624
-0.0865955 -0.592115 0.362224
0.149067 -0.334848 1.21037
-0.105936 -0.534906 0.27865
-0.0867121 -0.589735 0.35961
-0.0897551 -0.572789 0.344955
-0.101033 -0.541867 0.291045
-0.104465 -0.532187 0.274757
-0.0911461 -0.563996 0.329791
0.127103 -0.301883 1.23793
-0.0962402 -0.551423 0.308043
0.129582 -0.286305 1.24462
0.129387 -0.304789 1.23541
-0.102883 -0.54577 0.279689
-0.176683 0.435801 0.170963
0.0863611 -0.285123 1.27459
-0.161477 -0.619703 0.368648
-0.0918757 -0.560331 0.323469
-0.101837 -0.546621 0.282354
-0.244899 0.381281 0.104763
-0.244585 0.383811 0.106353
-0.17235 0.426346 0.156011
-0.243657 0.387763 0.108797
-0.243012 0.393348 0.11231
-0.2424 0.398975 0.115853
-0.230483 0.385469 0.14353
-0.229059 0.387043 0.144411
-0.228885 0.38932 0.145717
0.112011 -0.335939 1.2274
0.126064 -0.263617 1.25894
-0.228334 0.395892 0.150003
0.140687 -0.35574 1.20359
0.111513 -0.352472 1.21913
0.125397 -0.266669 1.25804
-0.227691 0.398362 0.15144
-0.22726 0.402202 0.153942
0.140231 -0.351096 1.2062
-0.227043 0.404158 0.155173
-0.224655 0.405158 0.155531
0.125094 -0.270812 1.25603
0.0986096 -0.279183 1.29007
-0.223684 0.412388 0.159156
-0.210574 0.350322 0.119085
0.140887 -0.293533 1.25185
0.102019 -0.283002 1.25941
-0.223764 0.414199 0.161004
0.100987 -0.286499 1.25838
-0.222962 0.418138 0.163184
-0.130503 0.43422 0.165851
0.0987495 -0.284493 1.26021
-0.222863 0.420494 0.165241
-0.209226 0.363203 0.126381
-0.222063 0.426682 0.169131
-0.219534 0.427554 0.168956
-0.197648 0.383443 0.124975
-0.218999 0.433422 0.172745
-0.154852 -0.566554 0.332811
-0.219985 0.436026 0.174921
-0.169363 -0.540809 0.287974
-0.206086 0.353838 0.118427
-0.173898 0.368151 0.127064
-0.240129 0.40144 0.117228
-0.225653 0.403088 0.15369
-0.219434 0.423673 0.166726
0.108866 -0.299651 1.25989
-0.226465 0.399778 0.151457
-0.240661 0.397091 0.114508
-0.219658 0.394633 0.111074
-0.18366 -0.564556 0.328768
0.138687 -0.354501 1.20518
0.110564 -0.350837 1.22042
-0.227287 0.396834 0.149591
-0.241479 0.393686 0.112391
-0.214376 0.443097 0.178698
-0.199432 0.367825 0.12891
-0.155065 0.413991 0.136457
-0.221513 0.421769 0.164421
0.125253 -0.333429 1.22585
-0.226858 0.397126 0.149576
-0.216197 0.44609 0.17951
-0.216175 0.446116 0.179903
-0.241657 0.390438 0.110331
-0.241747 0.389066 0.109462
-0.140503 -0.541314 0.279265
-0.221253 0.414352 0.161179
-0.198702 0.380526 0.123578
-0.219188 0.420756 0.16509
-0.214422 0.438854 0.176238
0.120692 -0.286336 1.25141
-0.225465 0.389215 0.145483
-0.233097 0.354097 0.12219
0.112968 -0.292669 1.24934
-0.225558 0.387863 0.144627
-0.220226 0.407963 0.157005
-0.230721 0.371214 0.132954
0.149129 -0.324962 1.21543
-0.228278 0.374418 0.136025
0.138886 -0.334697 1.21528
-0.229896 0.376179 0.13538
-0.174425 0.402167 0.140367
-0.218123 0.389501 0.145019
-0.214571 0.429983 0.170581
-0.159582 0.425158 0.139192
-0.180306 -0.62105 0.363581
0.0911762 -0.35213 1.22896
-0.221141 0.405623 0.15559
-0.236934 0.400338 0.116243
-0.182748 0.376295 0.12297
-0.214477 0.423616 0.166503
-0.221937 0.382898 0.103774
-0.188085 0.394446 0.145534
-0.228757 0.418109 0.127423
0.140864 -0.306932 1.22876
-0.211694 0.445012 0.179934
-0.213332 0.393626 0.142819
-0.23132 0.354192 0.122237
-0.190799 0.408133 0.153548
0.149842 -0.323979 1.22785
-0.228268 0.373148 0.128011
-0.144972 -0.598201 0.325264
-0.225382 0.374818 0.136271
-0.21432 0.41928 0.163718
-0.216147 0.42097 0.164959
-0.224357 0.398755 0.141353
-0.225286 0.383478 0.138172
-0.232128 0.363502 0.128458
-0.228347 0.412388 0.131109
0.139506 -0.325393 1.2215
-0.227495 0.390088 0.130455
0.138158 -0.299618 1.23499
-0.209232 0.436764 0.174445
-0.209441 0.433556 0.172413
-0.222162 0.395764 0.143241
-0.145936 -0.591463 0.353368
-0.12078 -0.571618 0.342274
-0.22317 0.380882 0.139954
-0.18442 0.383527 0.13823
-0.220389 0.394309 0.144368
-0.209628 0.430333 0.170369
-0.148236 -0.555702 0.272998
-0.183619 0.377827 0.134497
-0.118782 -0.544601 0.295816
0.0923584 -0.356992 1.26406
-0.214852 0.408674 0.156985
-0.225719 0.373787 0.126184
0.142172 -0.313508 1.2247
-0.209366 0.427844 0.168756
-0.224655 0.391469 0.130713
-0.219484 0.394885 0.144974
-0.113626 -0.576524 0.346045
-0.209506 0.423925 0.166263
-0.194412 0.409631 0.155797
-0.226193 0.413544 0.126705
-0.195348 0.405768 0.145862
-0.097677 -0.585638 0.3669
-0.22621 0.418941 0.127348
-0.220514 0.378819 0.13835
0.107704 -0.351608 1.22554
-0.101558 -0.573475 0.345883
-0.227205 0.41101 0.125037
-0.21436 0.405728 0.15506
-0.227071 0.409879 0.122131
-0.213788 0.403955 0.153833
-0.204513 0.44265 0.177792
-0.223447 0.354401 0.122567
0.143999 -0.329844 1.21535
-0.120279 -0.573102 0.327459
-0.223791 0.378734 0.128251
-0.22604 0.41012 0.122646
-0.172265 0.450128 0.142371
-0.201576 0.361227 0.124794
-0.225482 0.372215 0.124792
0.145841 -0.331728 1.21351
-0.119534 -0.571844 0.332505
-0.223783 0.379449 0.129962
-0.22618 0.410956 0.12496
-0.22261 0.381847 0.129541
-0.194481 0.406439 0.143175
-0.100802 -0.591775 0.361416
-0.22481 0.411577 0.122852
-0.204206 0.43709 0.174168
-0.21466 0.3882 0.142821
-0.105334 -0.584279 0.328338
0.0900649 -0.364597 1.26136
-0.221859 0.380516 0.129188
-0.204884 0.430658 0.170159
-0.18011 0.386406 0.139576
-0.204377 0.42819 0.168537
-0.120229 -0.586357 0.366599
-0.224846 0.385432 0.120031
-0.224782 0.386347 0.120245
-0.22113 0.35895 0.12545
-0.219465 0.354217 0.122104
-0.213821 0.414984 0.144629
-0.213715 0.396205 0.143173
-0.210545 0.413106 0.151366
0.116516 -0.311773 1.23771
-0.196752 0.390645 0.143868
-0.219422 0.386986 0.125795
-0.220055 0.351465 0.119608
-0.224939 0.388271 0.10751
-0.133218 0.424318 0.15968
-0.219043 0.398022 0.11904
-0.213157 0.416076 0.14482
-0.145784 -0.561007 0.281737
-0.20718 0.413665 0.158588
-0.162781 0.409634 0.124995
-0.208566 0.405513 0.154379
-0.207189 0.416193 0.15966
-0.224454 0.385027 0.106395
0.1025 -0.301874 1.24946
-0.223428 0.393715 0.110857
-0.222221 0.403261 0.117099
-0.164516 -0.551811 0.307243
-0.213758 0.368707 0.126363
0.0917153 -0.353479 1.26633
-0.212251 0.415175 0.15036
-0.219276 0.404158 0.117422
-0.204364 0.385323 0.141136
-0.208375 0.353657 0.11477
-0.136735 -0.546745 0.286614
-0.223584 0.38325 0.104178
-0.192232 0.380663 0.125186
-0.207867 0.397206 0.14904
-0.207483 0.399263 0.150321
-0.218687 0.407127 0.119133
-0.204762 0.41089 0.15376
-0.215213 0.360924 0.126496
-0.214352 0.361808 0.123823
-0.212941 0.421188 0.164816
-0.221221 0.392014 0.109538
-0.204766 0.401386 0.151268
-0.213968 0.358194 0.123393
-0.221734 0.390278 0.108535
-0.194566 0.442071 0.176545
0.10661 -0.343084 1.231
-0.214815 0.350761 0.119965
-0.160901 -0.606607 0.33914
-0.204335 0.393768 0.14651
-0.216164 0.403003 0.11999
0.140879 -0.258385 1.25523
-0.216537 0.403122 0.117882
-0.164331 -0.549694 0.303587
-0.213954 0.370792 0.12473
-0.123275 -0.583638 0.300449
-0.197515 0.431177 0.169842
0.114758 -0.321983 1.2677
-0.131465 -0.590401 0.331767
-0.209948 0.374689 0.13179
-0.20141 0.421265 0.158114
-0.20931 0.37376 0.12898
-0.204075 0.388556 0.143177
-0.175675 0.399498 0.147661
-0.194801 0.428931 0.168167
-0.160292 -0.607514 0.340715
-0.203129 0.391222 0.144798
0.0867599 -0.317194 1.24926
-0.174913 0.422273 0.162137
-0.209037 0.360259 0.125368
-0.20923 0.357824 0.123692
0.116087 -0.326318 1.26792
-0.207921 0.376628 0.131109
-0.20957 0.354193 0.121654
-0.201713 0.407025 0.121071
-0.207214 0.376147 0.135522
-0.204678 0.375836 0.1351
-0.133775 -0.57314 0.309582
-0.212114 0.351788 0.119731
-0.209785 0.352731 0.118121
-0.189613 0.441777 0.175922
-0.189761 0.440613 0.17519
-0.204072 0.373803 0.133138
-0.204324 0.368447 0.128622
-0.20128 0.38561 0.141048
-0.194374 0.407056 0.154137
-0.189556 0.428986 0.167741
-0.193321 0.361249 0.124776
-0.206008 0.36038 0.125167
-0.197817 0.401677 0.126414
0.149498 -0.276392 1.2648
-0.194323 0.404314 0.15235
-0.203482 0.377772 0.126866
-0.199108 0.373949 0.133287
-0.183995 0.391357 0.116632
-0.167769 0.366813 0.104772
-0.20152 0.375991 0.134921
-0.185781 0.392665 0.144192
-0.19986 0.392478 0.135332
-0.196849 0.391553 0.144457
-0.199101 0.383455 0.132969
-0.191687 0.417374 0.157233
-0.144437 -0.536912 0.28203
-0.188589 0.413966 0.157268
-0.199422 0.363599 0.126444
-0.16074 0.406523 0.142161
-0.191205 0.409481 0.155119
-0.176612 0.390181 0.141632
-0.203777 0.406225 0.119198
-0.202755 0.407244 0.120882
-0.194566 0.403238 0.139465
-0.197861 0.399099 0.124863
-0.199172 0.360849 0.125012
-0.192136 0.440739 0.149011
-0.198307 0.352723 0.116411
-0.181518 0.441416 0.174978
-0.180107 0.441187 0.174707
-0.198137 0.381976 0.124335
-0.197729 0.400176 0.125564
-0.145817 -0.544185 0.294519
-0.188767 0.403779 0.147729
-0.189158 0.40758 0.147881
-0.146931 -0.543221 0.284394
-0.191541 0.439243 0.144671
-0.158212 -0.576303 0.349183
-0.18665 0.413551 0.157619
-0.194496 0.363674 0.12643
-0.196492 0.40154 0.127036
-0.160627 0.423459 0.15457
-0.110487 -0.568721 0.334106
-0.189402 0.421314 0.147302
-0.143123 -0.547019 0.277836
-0.191715 0.405429 0.14024
-0.185341 0.420207 0.153016
-0.180327 0.426993 0.165654
0.13248 -0.294377 1.24963
-0.184928 0.421212 0.153285
-0.188881 0.383036 0.138311
-0.188175 0.388253 0.141583
0.112203 -0.32178 1.24735
-0.175059 0.409628 0.147002
-0.187196 0.397477 0.147124
-0.1863 0.412367 0.148715
-0.175036 -0.621797 0.367708
-0.192934 0.383987 0.126181
-0.179794 0.419735 0.160963
-0.185202 0.394905 0.145573
0.155449 -0.332853 1.20837
-0.170373 -0.621451 0.36468
-0.174559 0.441319 0.165281
-0.179925 0.433983 0.162476
-0.191364 0.38375 0.125892
-0.179139 0.426006 0.164918
-0.191284 0.386139 0.12642
0.0956655 -0.361116 1.2222
-0.189091 0.361544 0.124592
0.149435 -0.300933 1.24657
-0.187127 0.379895 0.136149
