ply
format ascii 1.0
comment Created by Open3D
element vertex 1656
property double x
property double y
property double z
end_header
-0.211647 0.0255469 0.0978134
-0.114532 0.0639854 0.0597594
-0.000653508 -0.455744 0.785679
-0.108823 0.448225 0.316039
-0.226772 0.134269 0.129781
-0.109507 -0.0222837 0.0816289
-0.190257 0.365374 0.274324
-0.22743 0.0544049 0.130417
-0.158296 0.0342426 0.125723
-0.208105 0.164262 0.10556
-0.191628 0.167803 0.0981266
-0.227949 0.154374 0.134576
-0.101425 0.124755 0.0582482
-0.114656 0.042452 0.057092
-0.224211 0.059268 0.115039
-0.224952 0.163704 0.12042
-0.150042 0.105755 0.0815585
-0.224362 0.335529 0.243947
-0.228753 0.104248 0.140052
-0.226616 0.0943018 0.128526
-0.0147952 -0.454453 0.754709
-0.0898988 0.11462 0.0524693
-0.199038 -0.0262882 0.114003
-0.0900022 0.410429 0.259213
-0.149933 -0.013852 0.0684969
-0.223984 0.010744 0.147499
-0.102779 0.139046 0.057273
-0.116071 0.00945404 0.108279
-0.134714 0.139276 0.070494
-0.107536 0.443281 0.309256
-0.168863 -0.0110077 0.0813479
-0.22618 0.0592388 0.125497
-0.201929 0.389671 0.335642
-0.15531 0.0225853 0.0997393
-0.0220464 -0.442979 0.752289
-0.226689 0.11933 0.129218
-0.207104 0.363896 0.312017
-0.226713 0.162759 0.12908
-0.178616 -0.00608151 0.0815317
-0.215406 0.164292 0.108424
-0.147672 0.337396 0.232187
-0.211836 0.0311293 0.102682
-0.175689 -0.0216842 0.119251
-0.220224 -0.0278047 0.141715
-0.212579 0.00582284 0.131748
-0.159221 0.437423 0.331265
-0.109661 0.154251 0.0609419
-0.227854 0.00858644 0.101954
-0.172276 0.167062 0.0874846
-0.205155 0.0174848 0.14349
-0.205238 0.379042 0.329997
-0.0947909 0.449563 0.309845
-0.227195 0.0597657 0.127477
-0.0116027 -0.450813 0.766192
-0.226192 0.0346206 0.124008
-0.152263 0.117341 0.0915971
-0.204544 0.154321 0.10071
-0.227918 0.162339 0.13381
-0.134855 0.417037 0.292317
-0.0907351 0.0790174 0.0508084
-0.170267 0.126628 0.0978137
-0.211219 -0.019468 0.14526
-0.200511 0.102202 0.0977055
-0.179659 0.0316496 0.123205
-0.22503 0.0742874 0.119845
-0.137988 0.37394 0.25679
-0.227755 0.134289 0.131764
-0.229619 0.0442507 0.144779
-0.230426 0.10425 0.150155
-0.14422 0.362896 0.231135
-0.18001 0.115303 0.0980269
-0.22771 0.129285 0.131488
-0.137711 0.149092 0.0722656
-0.224147 0.0242821 0.114941
-0.180671 0.0904955 0.099988
-0.227026 -0.00395637 0.129343
-0.12071 0.00395327 0.0799125
-0.227633 0.104282 0.130144
-0.0904066 0.0835959 0.0509873
-0.111958 0.346204 0.267636
-0.227348 0.039165 0.12653
-0.227277 0.0291055 0.125882
-0.10473 0.0543905 0.0542139
-0.094481 0.0893976 0.0535796
-0.154763 -0.0139365 0.0704883
-0.222489 0.144216 0.111284
-0.150949 0.154413 0.0780292
-0.101639 -0.012701 0.0667105
-0.0563927 0.44121 0.27816
-0.225671 0.0187127 0.124253
-0.112332 -0.00639478 0.0622354
-0.181595 0.0908245 0.108163
-0.222204 0.0494653 0.10716
-0.18697 -0.0298929 0.108587
-0.227434 0.0892371 0.129882
-0.214721 -0.0258129 0.143523
-0.227433 0.0844162 0.129626
-0.229793 0.169078 0.111431
-0.228795 0.0293461 0.139994
-0.0896443 0.04845 0.0470646
-0.0912653 0.0180055 0.0983593
-0.226916 0.0392684 0.130191
-0.192823 -0.00039315 0.0869738
-0.133741 0.172303 0.0718934
-0.227283 0.162656 0.13179
-0.104839 0.0253742 0.0519759
-0.203771 0.349346 0.285842
-0.125519 0.362486 0.301529
-0.131856 0.372457 0.244924
-0.227397 0.0491925 0.127041
-0.183082 0.168901 0.0920987
-0.130226 0.355429 0.221062
-0.149268 0.443025 0.335544
-0.159891 0.139819 0.0809305
0.0076667 -0.478782 0.782818
-0.173589 0.13298 0.111759
-0.135278 0.470847 0.358598
-0.225791 0.16342 0.1245
-0.226982 0.0543534 0.130509
-0.120096 0.119384 0.063372
-0.146197 0.461386 0.353051
-0.095388 0.0698916 0.0512884
-0.183887 0.0698324 0.0870665
-0.200166 0.139595 0.0982539
-0.222615 0.129285 0.111293
-0.204437 0.159288 0.100946
-0.144397 0.378525 0.250406
-0.0928806 0.387069 0.23212
-0.230445 0.114233 0.150477
-0.190421 0.0587442 0.101439
-0.197144 0.421152 0.371529
-0.161245 0.0177611 0.0752694
-0.14192 0.01921 0.0719377
-0.143012 0.422166 0.304723
-0.217467 0.0695325 0.100948
-0.144475 0.172197 0.0763412
-0.17973 0.149308 0.0896553
-0.213982 0.00647034 0.132933
-0.229506 0.139267 0.145018
-0.22742 0.0594098 0.130313
-0.208105 -0.0174629 0.132201
-0.191059 0.119706 0.0930977
-0.209213 0.352636 0.254898
-0.0995333 0.346435 0.230147
-0.227437 0.0492756 0.131051
-0.182861 0.413264 0.326147
-0.159602 0.149318 0.0813308
-0.194467 0.393585 0.315698
-0.0894293 0.423778 0.275223
-0.095112 0.0647273 0.0528516
-0.1126 0.404099 0.345369
-0.197537 0.387191 0.316376
-0.232427 0.168363 0.112398
-0.011406 -0.44131 0.775535
-0.182524 0.0904029 0.108807
-0.204463 0.372771 0.316342
-0.20114 0.0581179 0.0935851
-0.226848 0.0292699 0.129504
-0.102703 0.00232852 0.0845799
-0.197334 0.427826 0.380019
-0.128015 0.0902975 0.1176
-0.112619 -0.0176178 0.0736467
-0.159169 0.159254 0.0816875
-0.100625 0.466063 0.333342
-0.134679 0.129247 0.0699365
-0.139823 -0.001808 0.0747104
-0.201924 0.35392 0.297288
-0.190577 0.306525 0.256744
-0.215271 0.159185 0.108256
-0.182177 0.0318416 0.122335
0.0169277 -0.475849 0.80469
-0.170035 0.0153484 0.084478
-0.221944 0.0786487 0.107824
-0.0846528 0.429527 0.279635
-0.212405 0.3471 0.297114
-0.116247 0.139498 0.0628681
-0.077704 0.447016 0.297181
-0.219589 0.0644217 0.104761
-0.227092 -0.00274655 0.129402
-0.200832 0.119936 0.0983607
-0.0996857 0.0699699 0.0542784
-0.23497 0.0442991 0.145242
-0.227668 0.144025 0.132168
-0.18653 0.154184 0.0927439
-0.0234551 -0.465339 0.729749
-0.221383 -0.0302474 0.143156
-0.150339 0.117984 0.0760329
-0.095811 0.354201 0.27477
-0.216882 0.145078 0.107601
-0.231738 -0.0133808 0.143978
-0.147847 0.102836 0.0747762
-0.207568 0.0691604 0.0968355
-0.10675 -0.0286192 0.0643004
-0.0944337 0.374175 0.219961
-0.227612 0.00579159 0.109085
-0.184532 0.036064 0.104228
-0.0909655 0.169939 0.0540579
-0.105144 0.480708 0.353831
-0.21677 0.149529 0.107747
0.0253504 -0.488641 0.811026
-0.224201 0.0742092 0.11526
-0.201097 0.38562 0.32399
-0.138407 0.375039 0.258274
-0.19038 0.0742112 0.0900018
-0.0904378 -0.0255907 0.0729639
-0.101437 0.0224658 0.102895
-0.220328 0.0445027 0.104506
-0.161887 0.155065 0.0826023
-0.182755 0.0284546 0.122024
-0.23228 0.139293 0.159552
-0.228025 0.129269 0.136065
-0.190037 0.0792988 0.0901465
-0.164481 0.443023 0.340791
-0.112729 0.471949 0.34732
-0.114252 0.0343688 0.056356
-0.231023 0.129274 0.154431
-0.192837 0.00716478 0.0873868
-0.226803 0.139351 0.129889
-0.199695 0.149335 0.0998669
-0.13769 0.430576 0.323901
-0.228813 0.114229 0.139949
-0.119254 0.0945024 0.0616761
-0.107818 0.446437 0.313285
-0.226814 0.144281 0.129919
-0.153762 0.44422 0.341447
-0.129925 0.369029 0.255883
-0.223027 0.0692349 0.110557
-0.230923 0.0294789 0.15298
-0.124734 0.124253 0.0655534
-0.168468 -0.000802817 0.0768789
-0.227578 0.0992641 0.129863
-0.167727 0.361494 0.243787
-0.206683 0.164282 0.103358
-0.204552 0.0862205 0.0977283
0.0180132 -0.45753 0.818063
-0.191436 0.114993 0.0932603
-0.228769 0.0642371 0.140332
-0.068965 0.462628 0.311451
-0.230281 0.0543383 0.1495
-0.201821 -0.0334558 0.105152
-0.0887145 0.437513 0.291671
-0.0991241 0.109334 0.0545148
-0.207429 -0.0127913 0.100783
-0.17843 0.458197 0.367137
0.00827381 -0.441709 0.811569
-0.118349 0.0196867 0.109776
-0.230401 0.134292 0.149782
0.00617915 -0.460885 0.79541
-0.227208 0.158526 0.132364
-0.231097 0.157489 0.154567
-0.112461 0.345473 0.267169
-0.232488 0.00868657 0.144525
-0.231505 0.13929 0.158787
-0.202927 0.402362 0.356941
-0.0982208 0.482294 0.35191
-0.226854 0.00777963 0.108782
-0.143108 0.462052 0.352313
-0.117953 0.114138 0.0622009
-0.107633 0.423566 0.285127
-0.19912 0.130928 0.0978478
-0.104494 -0.0154266 0.0652053
-0.154746 0.159254 0.0798594
-0.148893 0.00821003 0.0780833
-0.204524 0.109211 0.0991278
-0.236007 0.144266 0.151177
-0.215499 0.154242 0.106299
-0.184787 0.0292115 0.13686
-0.227634 0.0077749 0.109408
-0.0139347 -0.430682 0.779975
-0.192168 0.422688 0.353249
-0.204382 -0.0097422 0.109795
-0.0902729 0.0115563 0.0967014
-0.230428 0.154276 0.149867
-0.0156472 -0.449864 0.759396
-0.170796 0.430094 0.329192
-0.122449 0.423927 0.296626
-0.230806 0.0393493 0.153273
-0.135827 0.0764327 0.0675474
-0.219733 0.159261 0.109984
-0.134723 0.134252 0.0702254
-0.129682 -0.0105795 0.0609065
-0.153305 0.0921654 0.0962756
0.01004 -0.475849 0.790336
-0.209043 0.044237 0.103429
-0.114853 0.0742301 0.0598964
-0.190683 0.0551694 0.0989413
-0.224259 0.0543095 0.115101
-0.128325 0.12422 0.0670359
0.00438028 -0.480255 0.774679
-0.22753 0.0173982 0.125717
-0.228874 0.149307 0.139872
-0.227333 0.00384881 0.107152
-0.226724 0.129279 0.129485
-0.139791 0.460126 0.349264
-0.122764 0.412725 0.324037
-0.161992 0.121634 0.0826671
-0.0127081 -0.429461 0.783601
-0.196899 0.424771 0.379983
-0.172867 0.11613 0.117375
-0.163898 0.350948 0.228854
-0.231696 0.119386 0.158129
-0.186827 0.1498 0.0926347
-0.235801 0.124159 0.150047
-0.172396 0.0086345 0.0834073
-0.222343 0.0350567 0.106963
-0.121753 0.415353 0.307025
-0.230393 0.139284 0.14975
-0.114588 0.16932 0.0637949
-0.0701345 0.390682 0.223852
-0.0015494 -0.426725 0.808832
-0.190024 0.441121 0.378815
-0.186472 0.418694 0.339133
-0.226794 0.149264 0.129762
-0.148356 -0.0288421 0.0670283
-0.190028 0.422749 0.341582
-0.227698 0.114391 0.130704
-0.232188 0.129266 0.158975
-0.0796455 0.423988 0.270017
-0.193808 0.14372 0.0961933
-0.22667 0.00819264 0.101455
-0.21897 -0.0121225 0.108596
0.000229794 -0.430432 0.809083
-0.131402 0.407613 0.324486
-0.0851983 0.440781 0.293717
-0.110114 0.0250828 0.0541416
-0.159232 0.457936 0.356098
-0.226003 0.109333 0.125178
-0.222042 0.0445703 0.108404
0.0122808 -0.454555 0.808703
-0.226994 0.064296 0.129803
-0.0997678 0.459553 0.324878
-0.151523 0.0341978 0.11804
-0.0158062 -0.431542 0.77532
0.00392806 -0.461052 0.790573
-0.121007 0.104471 0.0629423
-0.134629 0.149273 0.0709985
-0.140499 0.447559 0.336856
-0.230853 0.054261 0.15404
-0.202278 0.392255 0.339381
-0.0897852 0.439608 0.294839
-0.131106 -0.0286647 0.0878406
-0.126374 0.0975232 0.117311
-0.127299 0.352335 0.229462
-0.224056 0.104375 0.114515
-0.0548423 0.479803 0.32467
-0.222461 0.348154 0.257684
-0.141688 0.47532 0.367625
-0.230243 0.0241123 0.150433
-0.225016 0.11431 0.120261
-0.101296 0.461371 0.327962
-0.222969 -0.0174899 0.137126
-0.184468 0.392606 0.301565
-0.120176 0.465702 0.343817
-0.223736 0.139298 0.11469
-0.0960357 0.0226302 0.100709
-0.225287 0.0493006 0.120573
-0.223715 0.159311 0.115314
-0.200575 0.0801501 0.094554
-0.0270258 -0.448133 0.737394
-0.211943 -0.0259573 0.142658
-0.208587 0.0711567 0.104527
-0.228871 0.144279 0.13974
-0.141745 0.124968 0.0726317
-0.168994 0.0192351 0.0860568
-0.0919028 0.0274534 0.0476549
-0.225982 -0.00775246 0.144001
-0.125376 0.169373 0.0682596
-0.204323 0.164291 0.101189
-0.108974 0.0223035 0.106049
-0.154171 -0.0157031 0.0782186
-0.0758068 0.371034 0.202917
-0.0944521 0.10013 0.0543839
-0.185555 0.367154 0.271185
-0.0895894 0.399134 0.245083
-0.235427 0.094338 0.148136
-0.227928 0.0892979 0.134698
-0.149949 -0.0266855 0.0680172
-0.198827 0.0995859 0.0955056
-0.228781 0.0892622 0.140324
-0.106242 -0.0235434 0.0801603
-0.18372 0.389293 0.2856
-0.231275 -0.00653648 0.144359
-0.114338 -0.0143658 0.0642608
-0.230264 0.0592789 0.149551
-0.210006 0.353289 0.276913
-0.207871 0.124537 0.0999476
-0.128423 -0.0201182 0.0763465
-0.0962062 -0.028671 0.0748399
-0.207253 0.35718 0.299027
-0.209603 0.16713 0.110347
-0.112466 -0.0277761 0.0673786
-0.23605 0.149307 0.151467
-0.231552 0.144284 0.15908
-0.198384 -0.0275004 0.0878253
-0.0164176 -0.441068 0.765695
-0.0905508 0.0987351 0.0519907
-0.190292 0.342338 0.277041
-0.16176 0.386601 0.27275
-0.108938 0.348071 0.274597
-0.108835 -0.00412454 0.0642964
-0.208734 0.0492223 0.103609
-0.148376 0.00435808 0.0755386
0.00718589 -0.499092 0.764009
-0.202527 0.105125 0.0970872
-0.167731 0.357093 0.237144
-0.151788 0.44201 0.332405
-0.231119 0.0943136 0.155647
-0.230396 0.0793323 0.149938
-0.217061 0.0511261 0.102581
-0.22328 0.0160605 0.107819
-0.195358 0.0797373 0.0935536
-0.0986496 0.414931 0.269519
-0.174805 0.164319 0.0884318
-0.202296 0.107597 0.0973809
-0.151988 0.441742 0.332188
-0.215405 -0.0211461 0.144195
-0.2311 0.0893339 0.155651
-0.207259 -0.00870716 0.092435
-0.151398 0.020517 0.100603
-0.190075 0.134077 0.0934496
-0.0963293 0.451419 0.312981
-0.219918 0.0492194 0.104571
-0.0698827 0.419983 0.259653
-0.190416 0.159916 0.0953732
-0.184824 0.433011 0.35607
-0.11355 -0.0212981 0.075844
-0.229554 0.154352 0.145331
-0.0165364 -0.451968 0.755587
-0.168004 0.095851 0.0918069
-0.200492 0.00718099 0.108333
-0.169412 -0.0299208 0.093405
-0.197754 0.0854448 0.0978707
-0.226315 0.044221 0.125616
-0.228789 0.109369 0.140096
-0.15797 -0.0219337 0.086924
-0.230906 0.0592806 0.154283
-0.214667 0.0785309 0.101903
-0.206948 0.0370922 0.10153
-0.131489 0.00358134 0.0633129
-0.174306 -0.0205459 0.0937943
-0.13928 0.361024 0.229283
-0.208504 -0.0168204 0.132598
-0.147365 0.024823 0.107767
-0.224961 0.0842932 0.119587
-0.232166 0.126628 0.15873
-0.222032 0.0397091 0.10824
-0.011217 -0.436314 0.780682
-0.228817 0.119284 0.139737
-0.171811 0.461627 0.367649
-0.114564 0.172616 0.0639674
-0.0911012 0.358855 0.220216
-0.111119 0.353323 0.225951
-0.230306 0.0642242 0.149454
-0.153705 -0.018326 0.0779054
-0.119541 0.172499 0.0660201
-0.227474 0.0792255 0.129355
-0.194225 0.00744005 0.0880153
-0.214688 -0.0290518 0.143263
-0.104702 0.149332 0.0586248
-0.121234 0.365114 0.233573
-0.095659 0.0698641 0.0529104
-0.12384 0.0330193 0.108647
-0.205161 0.396296 0.353211
-0.113368 0.398634 0.339093
-0.222214 0.0422912 0.106779
-0.204958 0.400662 0.358791
-0.133184 0.354591 0.221291
-0.121673 -0.0077357 0.0571498
-0.227993 0.109247 0.135417
-0.188491 0.124129 0.0919176
-0.084052 0.402703 0.246369
-0.223632 0.0159273 0.122419
-0.111306 0.0436635 0.0579295
-0.225302 0.0443077 0.120548
-0.0751087 0.400665 0.238876
-0.19935 0.0829961 0.0955829
-0.0973637 0.0898136 0.05237
-0.231121 0.154276 0.15456
-0.190275 0.0951312 0.091078
-0.170052 0.455475 0.35912
-0.100087 0.450551 0.314015
-0.232459 -0.0104978 0.144349
-0.123264 0.0947553 0.0633493
-0.0847292 0.409413 0.254978
-0.131088 0.119458 0.0679231
-0.0146088 -0.427602 0.781271
0.00722371 -0.464707 0.794236
-0.207945 0.114127 0.0994233
-0.178693 0.0856099 0.101896
-0.191881 0.154539 0.0976586
-0.16063 0.039501 0.123356
-0.208435 0.343206 0.315886
-0.0647108 0.41513 0.250813
-0.228806 0.0742909 0.140465
-0.143119 0.372218 0.241955
-0.138528 0.0991828 0.0761877
-0.123601 0.462424 0.341707
-0.186051 0.0144674 0.0849787
-0.225177 0.0592998 0.120274
-0.19174 0.149352 0.0978683
-0.190841 0.108579 0.0920603
-0.196024 0.434378 0.389977
-0.106928 -0.00370529 0.0635855
-0.134184 0.119602 0.0692089
-0.129101 0.418632 0.314464
-0.177959 0.453153 0.365363
0.0134108 -0.47645 0.796834
-0.119419 0.352839 0.226272
-0.227527 0.0942496 0.12967
-0.172301 -0.0187975 0.0824515
-0.00018972 -0.475721 0.76913
-0.119852 0.42752 0.296799
-0.184681 0.0354181 0.137809
-0.172756 0.44775 0.351304
-0.114867 0.464788 0.339732
-0.231024 0.134333 0.154259
-0.201154 0.360074 0.284255
-0.198391 0.138054 0.0968881
-0.235765 0.11937 0.149714
-0.179573 0.393792 0.289955
-0.143746 0.0644711 0.0701823
-0.0876375 0.401904 0.247391
-0.228007 0.134228 0.136225
-0.0911448 0.149268 0.053014
-0.225931 0.129266 0.12508
-0.206948 0.352671 0.326622
-0.207494 0.0492016 0.0957549
-0.122746 0.404025 0.347378
-0.14147 0.129537 0.0727639
-0.106149 0.00421147 0.0899905
-0.183432 0.40035 0.299812
-0.127504 0.0893983 0.117105
-0.190285 0.0446772 0.0951767
-0.225423 0.0289464 0.121042
-0.0995268 0.463966 0.330157
-0.224969 0.0993509 0.119884
-0.230888 0.0643573 0.154331
-0.134848 -0.000455979 0.0645517
-0.2267 0.006024 0.123618
-0.179565 -0.0216817 0.12128
-0.172141 0.426671 0.324954
-0.208218 0.375536 0.329286
-0.231062 0.0842813 0.15545
-0.226335 0.0492456 0.125638
-0.167515 -0.0245551 0.0769179
-0.143118 0.416267 0.295988
-0.184595 0.00427833 0.0854046
-0.111041 -0.0194309 0.0739065
-0.191678 0.349817 0.283207
-0.202853 0.382815 0.361329
-0.148411 0.099583 0.0751544
-0.154413 0.407656 0.291731
-0.232415 0.15414 0.160418
-0.224958 0.159199 0.120534
-0.116282 -0.00474068 0.0734476
-0.174696 0.420591 0.319419
-0.209451 0.0240153 0.0954373
-0.140636 0.413655 0.296788
-0.217996 0.00122215 0.146445
-0.222521 0.119239 0.110726
-0.197254 0.309132 0.262649
-0.224281 0.0492883 0.114782
-0.0982963 0.0643526 0.051552
-0.155728 0.425374 0.314199
-0.228267 -0.0250522 0.150518
-0.128369 -0.0167991 0.0764968
-0.139489 0.0911817 0.0704039
-0.228716 0.0442509 0.139919
-0.229551 0.104305 0.144601
-0.144977 0.365229 0.234419
-0.225716 -0.0256234 0.148991
-0.0654029 0.385371 0.214695
-0.227387 0.0643007 0.12968
0.0130567 -0.492903 0.781671
-0.134695 0.144239 0.0707546
-0.226834 0.0342439 0.129938
-0.125713 -0.0057456 0.0592874
-0.0708425 0.37265 0.202128
-0.235296 0.0792954 0.147261
-0.22388 0.129279 0.114993
-0.182644 -0.0233517 0.126958
-0.0927247 0.123966 0.0522988
-0.175167 0.159317 0.0883094
-0.230278 0.0391783 0.14914
-0.215995 0.0996884 0.104493
0.00105385 -0.460487 0.785079
-0.227987 0.114296 0.13553
-0.194559 0.129385 0.0948499
-0.020444 -0.455296 0.744351
-0.206777 0.35069 0.295853
-0.144731 0.149273 0.0751777
-0.170963 0.0932014 0.0835056
-0.132044 0.471608 0.357687
-0.108986 0.361421 0.213887
-0.204974 0.0491638 0.0951514
-0.190402 0.129279 0.0933458
-0.00653349 -0.486734 0.746254
-0.227286 0.0539453 0.127389
-0.222372 0.0930205 0.107396
-0.201401 -0.0193744 0.0977612
-0.216438 0.350934 0.263376
-0.0912952 0.173 0.0543603
-0.232235 0.134319 0.159262
-0.135352 0.441525 0.322633
-0.2295 0.129327 0.144863
-0.210182 -0.0129098 0.103508
-0.184266 0.437653 0.361245
-0.227475 0.0391036 0.131699
-0.137358 0.000702696 0.0660291
-0.202152 0.35673 0.283289
-0.162671 0.0803519 0.0788663
-0.184435 0.0641375 0.0869917
-0.154574 0.140225 0.0787538
-0.224201 0.09932 0.114487
0.00690755 -0.475378 0.784221
-0.116275 0.126477 0.0633334
-0.0805742 0.42616 0.273201
0.00404538 -0.490024 0.765415
-0.13471 0.36079 0.224624
-0.230391 0.129244 0.149847
-0.0170168 -0.437887 0.767235
-0.0540137 0.477548 0.321436
-0.222807 0.347368 0.256799
-0.194754 0.170063 0.0969606
-0.112129 -0.0237065 0.0746215
-0.134059 -0.0154645 0.0810371
-0.148685 0.0892146 0.0806866
-0.00296882 -0.475016 0.763957
-0.219645 0.149326 0.109382
-0.100814 0.164119 0.0578172
-0.186242 0.452266 0.384453
-0.0986476 0.0227911 0.101798
-0.178846 0.0822667 0.0856868
-0.205421 -0.00726147 0.110567
-0.13279 0.43544 0.33549
-0.230568 -0.0103007 0.143902
-0.215247 0.353208 0.278834
-0.144788 0.459691 0.350576
-0.117631 0.119074 0.0623346
-0.108122 0.421451 0.282805
-0.224168 0.0843405 0.11482
-0.117347 0.0431255 0.0587397
-0.194 0.0699761 0.0912682
-0.0018139 -0.432887 0.801934
-0.195771 -0.00014001 0.0930199
-0.10993 0.47504 0.34955
-0.22961 0.064307 0.144693
-0.227985 0.0792808 0.134746
-0.212592 -0.0293776 0.142359
-0.218623 0.119473 0.106155
-0.170262 -0.000757859 0.079865
-0.0902459 0.146086 0.0524704
-0.164616 0.085729 0.0799573
-0.18869 0.00726316 0.0863416
-0.0883329 0.372485 0.211692
-0.231 0.124256 0.154739
-0.0705758 0.455691 0.303842
-0.160043 0.0892615 0.0784315
-0.211076 0.0456433 0.0990549
-0.202942 0.0149201 0.14044
-0.0946481 0.474221 0.340013
-0.230975 0.0243972 0.152785
-0.132349 0.341045 0.217092
-0.0905261 0.133257 0.051892
-0.22675 0.10926 0.129378
-0.207488 0.090287 0.0979353
-0.0626593 0.461986 0.307143
-0.131683 0.109591 0.0676364
0.0111686 -0.446022 0.813856
-0.231585 0.00649966 0.143758
-0.215294 0.0655328 0.100124
-0.207208 0.351989 0.325975
-0.226106 0.064294 0.125244
-0.229531 0.124226 0.144928
-0.0986427 0.457447 0.321667
-0.14073 0.00257333 0.0717098
-0.0702213 0.453332 0.30075
-0.230384 0.124277 0.149834
-0.201709 0.349864 0.284279
-0.192292 0.417982 0.336251
-0.223933 0.337728 0.246414
-0.0987891 0.0197019 0.101644
-0.0893797 0.34825 0.220643
0.00360755 -0.471236 0.780976
-0.154147 0.367277 0.242105
-0.231094 0.144334 0.154713
-0.0116524 -0.45694 0.761384
-0.0743466 0.398326 0.235581
-0.104985 -0.00630131 0.051514
-0.230384 0.0743059 0.149909
-0.2198 0.164266 0.110287
-0.204257 -0.0307064 0.114174
-0.141182 -0.0180098 0.0894481
-0.199951 0.124204 0.0967255
-0.234694 0.0214781 0.143774
-0.116325 -0.0170964 0.0706464
-0.229612 0.0592433 0.14461
-0.212094 0.355517 0.268513
-0.185126 0.442595 0.369973
-0.226755 0.0842736 0.128709
-0.194551 0.464075 0.383348
-0.194475 0.164283 0.0995726
-0.112909 0.050469 0.0566713
-0.0558585 0.45048 0.289232
0.00627379 -0.519445 0.744264
-0.224736 0.0165681 0.116525
-0.215259 0.0490461 0.100691
-0.099302 0.448242 0.310744
-0.207457 0.0442014 0.0956691
-0.182592 0.341844 0.252151
-0.227929 0.0992786 0.134928
-0.205402 0.104333 0.0984616
-0.169062 0.358723 0.239887
-0.145189 0.474181 0.368183
-0.217314 -0.0259315 0.144557
-0.205629 0.0842236 0.0969483
0.00409337 -0.486315 0.768767
-0.228122 0.0643036 0.134703
-0.231009 0.0793017 0.155153
-0.224135 -0.0277212 0.147101
-0.16986 0.435669 0.334718
-0.230899 0.0343338 0.153162
-0.198718 0.0281369 0.0989828
-0.154656 0.149256 0.0792814
-0.0845348 0.4341 0.285152
-0.235537 -0.00391701 0.125402
-0.215227 0.0298886 0.100173
-0.119972 0.34454 0.219837
-0.144592 0.164248 0.0759297
-0.218315 0.109235 0.106089
-0.131957 0.374512 0.305135
-0.216421 0.0881049 0.104251
-0.189524 0.055578 0.0886263
-0.129707 0.0995502 0.118792
-0.129232 -0.0274478 0.0861227
-0.159051 0.0393966 0.121858
-0.0641993 0.427882 0.266169
-0.229587 0.0492873 0.144717
-0.207944 0.345773 0.318722
-0.114804 0.343652 0.214876
-0.151047 0.102705 0.0932973
-0.106838 0.367762 0.223122
-0.131392 0.114503 0.0677813
-0.0123357 -0.422954 0.790083
-0.166231 -0.0120037 0.0790055
-0.0793028 0.388116 0.225823
-0.218793 0.0195918 0.102147
-0.21553 0.104572 0.10406
-0.000701949 -0.466489 0.776157
-0.170578 0.0911082 0.0830886
-0.124841 0.359045 0.295332
-0.110119 0.341969 0.21171
-0.175734 0.0822561 0.0844023
-0.235169 -0.000960711 0.125699
-0.224167 0.0894082 0.115042
-0.153329 0.0904074 0.0956529
-0.201481 -0.0166831 0.0978238
0.00831974 -0.481481 0.781813
-0.23561 0.114287 0.14929
-0.00171046 -0.48752 0.755616
-0.134909 0.348318 0.225135
-0.166298 0.356378 0.259068
-0.207386 0.0330556 0.0960259
-0.0957994 0.000978759 0.0786254
-0.146701 0.350837 0.227754
-0.114947 0.0592359 0.0589264
-0.154579 -0.0243548 0.0864812
-0.104984 0.144438 0.0584766
-0.131146 -0.0273273 0.0879159
-0.186913 0.381457 0.277741
-0.227634 0.119333 0.13092
-0.228786 0.0843108 0.140373
-0.187549 0.13848 0.0922972
-0.00687025 -0.4225 0.80187
-0.22669 0.124348 0.129223
-0.209377 0.168787 0.104118
-0.179979 0.0973999 0.106611
-0.0718041 0.371503 0.201258
-0.235277 0.0741186 0.147018
-0.160753 0.471063 0.373049
-0.147815 0.47211 0.367109
-0.140148 0.0997196 0.108344
-0.145621 0.35576 0.224078
-0.226696 0.104269 0.129122
-0.178115 0.00865297 0.0814285
-0.221877 0.0233885 0.107817
-0.156786 0.427955 0.317956
-0.0968281 0.0900445 0.052161
-0.0682904 0.467321 0.316831
-0.228861 0.154213 0.139855
-0.0903761 0.0897379 0.0520047
-0.192902 0.0960089 0.0921898
-0.106527 0.119481 0.0577644
-0.208332 0.0520928 0.103536
-0.160688 0.385071 0.285432
-0.144834 0.3504 0.226405
-0.0936957 -0.00100639 0.0766857
-0.139254 0.0959626 0.0776561
-0.181497 0.0323413 0.122446
-0.114846 0.114776 0.0609501
-0.164786 0.171893 0.0847398
0.00333393 -0.482652 0.770396
-0.136452 -0.0205499 0.0754313
-0.148665 0.085332 0.0733459
0.0196025 -0.463137 0.816916
-0.109091 0.172637 0.0617031
-0.134593 0.370425 0.239123
-0.227969 0.119245 0.135622
-0.190354 0.0692071 0.0897139
-0.215643 0.0540236 0.10158
-0.0999793 0.475313 0.344329
-0.104983 0.0982317 0.0560194
-0.179458 -0.0159877 0.125008
-0.172414 0.163561 0.0873841
-0.204885 0.383812 0.335396
-0.182388 0.0877162 0.104524
-0.227981 0.104277 0.13524
-0.124629 0.114208 0.0649668
-0.0916633 0.0896433 0.0528288
-0.10975 0.479481 0.354898
-0.230082 0.0198317 0.151041
-0.126574 0.0472546 0.114688
-0.203368 0.3977 0.351503
-0.116537 0.134651 0.0627264
-0.230414 0.0942609 0.150061
-0.138648 0.0147895 0.0747212
-0.147424 -0.0138083 0.0674617
-0.180141 0.09491 0.106967
-0.227418 0.0694464 0.129951
-0.0889087 0.457612 0.316434
-0.0956694 0.0738741 0.0528185
-0.203076 0.408484 0.365441
-0.0613978 0.40395 0.235249
-0.208782 0.343641 0.246785
-0.199545 0.109153 0.0957745
-0.157908 0.45536 0.352199
-0.135302 0.455544 0.340545
-0.22956 0.14921 0.145397
-0.222997 0.0642643 0.110208
-0.226955 0.0494306 0.130363
-0.164776 0.149281 0.0834689
-0.194061 0.405115 0.334681
-0.204118 -0.00660961 0.0915558
-0.0989233 0.477597 0.346541
-0.160364 0.43725 0.352186
-0.0988932 0.398994 0.250106
-0.227675 0.124288 0.131183
-0.190291 0.103593 0.091549
-0.214985 0.34549 0.249308
-0.230848 0.00929183 0.139267
-0.0142085 -0.435718 0.774989
-0.229629 0.0341864 0.145101
-0.159644 0.374557 0.254265
-0.226467 0.0203577 0.12992
-0.22963 0.0394138 0.144865
-0.223859 0.134295 0.11501
-0.107479 0.427865 0.290314
-0.136098 0.0933098 0.070226
-0.179958 -0.0197975 0.124763
-0.191456 0.464937 0.382678
-0.0992311 0.124164 0.0550396
-0.142798 0.0187617 0.0728016
-0.213041 0.0097623 0.13163
-0.144905 0.0715683 0.0725602
0.00934173 -0.490918 0.775669
-0.225944 0.119264 0.125051
-0.0994357 0.129411 0.0556534
-0.15669 0.369198 0.263827
-0.228115 0.0343557 0.134319
-0.188266 -0.0273393 0.109283
-0.235749 0.12925 0.150149
-0.075525 0.396023 0.233413
-0.10305 0.472123 0.342131
-0.229672 0.0792763 0.145067
-0.0660308 0.416276 0.252955
-0.228084 0.0743482 0.134928
-0.232325 0.144268 0.159843
-0.134239 0.164207 0.0716452
-0.130859 0.103054 0.119465
-0.231089 0.149252 0.154556
-0.220137 0.167962 0.109581
-0.113559 -0.00604493 0.063501
-0.18043 0.0881033 0.104592
-0.189468 0.00418294 0.0866338
-0.189566 0.398004 0.316181
-0.0696804 0.458074 0.306265
-0.216624 -0.0188428 0.134993
-0.229681 0.0892598 0.145075
-0.156706 0.0865817 0.0776204
-0.227611 0.0292319 0.131458
-0.109626 0.124279 0.0593057
-0.102578 0.407855 0.263032
-0.225105 0.0135606 0.149964
-0.141623 0.342192 0.231583
-0.159805 0.117611 0.0897644
-0.19679 0.425864 0.383481
-0.201377 0.0386097 0.0944582
-0.225615 -0.0286704 0.147621
-0.104076 -0.0128263 0.0660872
-0.190199 -0.00640058 0.0859584
-0.0983376 0.355429 0.277704
-0.223864 0.114292 0.114468
-0.0951801 0.0787482 0.0514404
-0.00430684 -0.430441 0.799997
-0.115889 0.47125 0.348228
-0.101622 0.100784 0.0577064
-0.231651 0.124381 0.15829
-0.124262 0.363644 0.230439
-0.216802 0.0639832 0.103036
-0.159481 0.154262 0.081547
-0.155173 0.0435683 0.126304
-0.228769 0.0593062 0.140258
-0.208891 0.352846 0.26474
-0.124162 -0.0179798 0.0797813
-0.148771 0.0934115 0.0912451
-0.152 0.00163763 0.0782338
-0.235634 0.109256 0.149085
-0.0111107 -0.431133 0.785465
-0.171481 -0.00654908 0.0837352
-0.228808 0.0792884 0.140539
-0.205548 0.0993787 0.0980512
-0.0128947 -0.439953 0.774014
-0.112884 0.00791055 0.101189
-0.169948 0.459982 0.364643
-0.207903 0.12907 0.100214
-0.183486 0.46418 0.377299
-0.230432 0.0842679 0.150149
-0.113888 0.449599 0.320553
-0.229028 -0.00420345 0.129996
-0.227438 -0.0119105 0.14238
-0.227594 0.00560548 0.101665
-0.185731 0.0343638 0.136486
-0.214971 0.0748256 0.101509
-0.227489 0.0454745 0.126819
-0.151773 0.100013 0.0918921
-0.0637646 0.432534 0.271633
-0.228751 0.0542836 0.140004
-0.207373 0.35018 0.323816
-0.220571 0.016174 0.102222
-0.155447 0.440803 0.344239
-0.162641 0.100665 0.0871346
-0.124094 0.363205 0.220277
-0.215944 0.139378 0.105873
-0.227952 -0.0224034 0.150569
-0.151785 0.0373164 0.118092
-0.195498 0.145142 0.0980592
-0.229651 0.0943423 0.144884
-0.215739 -0.0168773 0.13527
-0.143271 0.0944957 0.0718275
0.0100801 -0.465641 0.799369
-0.144612 0.169275 0.0762101
-0.147212 -0.0122035 0.0674586
-0.0668258 0.4116 0.247663
-0.228772 0.069314 0.140279
-0.102052 0.149699 0.0575478
-0.193925 0.403387 0.32993
-0.0173088 -0.47844 0.731072
-0.0915852 0.461602 0.322823
-0.159466 -0.0263716 0.0854581
-0.190057 -0.0148649 0.0850446
-0.202261 0.362486 0.289073
-0.093327 -0.0179977 0.045067
-0.228142 0.0592117 0.134506
-0.20751 0.355555 0.260565
-0.148498 -0.00157129 0.0729147
-0.151476 0.0922093 0.0931657
-0.205095 0.099105 0.0973824
-0.21052 0.354397 0.278025
-0.0997111 0.134263 0.0557454
-0.0645695 0.387685 0.217069
-0.129542 -0.0146187 0.0616921
-0.0028309 -0.424822 0.808217
-0.22812 0.0443433 0.134093
-0.226854 0.0742966 0.128827
-0.200753 0.383589 0.320818
-0.222101 0.0541712 0.109004
-0.228873 0.13435 0.139554
-0.0905672 0.0694508 0.0485563
-0.228019 0.049317 0.134242
-0.0708649 0.451102 0.298374
-0.230435 0.11924 0.150267
-0.0148509 -0.445757 0.764566
-0.221099 -0.00917359 0.150692
-0.211603 0.0472716 0.0990488
-0.229507 0.134244 0.14498
0.00719446 -0.459755 0.798516
-0.225996 0.0743173 0.124819
-0.19405 0.0192706 0.131501
-0.220617 -0.00759692 0.150626
-0.225906 0.154337 0.125215
-0.204497 0.168685 0.101189
-0.201978 0.421751 0.382759
-0.228855 0.159136 0.139833
-0.198883 0.433183 0.350233
-0.127165 0.142011 0.0674988
-0.135677 0.416503 0.292122
-0.126605 0.149679 0.0677044
-0.145676 0.0113636 0.0932662
-0.0178325 -0.43978 0.763876
-0.0982901 0.419428 0.274834
-0.141237 0.00503449 0.0740131
-0.22444 -0.0174606 0.139022
-0.184531 0.39338 0.30401
-0.225916 0.149235 0.125313
-0.227954 0.0842561 0.134726
-0.212425 -0.0264211 0.142411
-0.218295 0.124266 0.106708
-0.0839358 0.487146 0.349886
-0.215893 0.167269 0.108684
-0.175911 0.104703 0.0867671
-0.190481 0.041702 0.0934735
-0.151787 0.140365 0.0776205
-0.228103 0.0393061 0.134737
-0.228728 0.0992161 0.140075
-0.145103 0.360662 0.228887
-0.145175 0.00254453 0.0723309
-0.162508 0.436968 0.332207
-0.222548 0.15923 0.111813
-0.139665 0.410704 0.344962
-0.0514877 0.47615 0.318279
-0.118192 0.477273 0.356902
-0.136091 0.0982425 0.0749971
-0.204776 0.0158582 0.143081
-0.217441 0.0529132 0.102447
-0.0932421 0.472285 0.336853
-0.229586 0.109285 0.144837
-0.204973 0.0742339 0.0969253
-0.207982 0.373499 0.325431
-0.150303 0.454578 0.346992
-0.116463 0.34737 0.219684
-0.219236 0.0744015 0.105476
-0.228766 0.0392196 0.140018
-0.158856 0.462588 0.361594
-0.22961 0.099299 0.144767
-0.14446 0.358417 0.225775
-0.177598 -0.0126661 0.0868089
-0.214825 0.168783 0.105655
-0.219606 0.0842271 0.106024
-0.0902919 0.0197529 0.045811
-0.219482 0.0892331 0.106136
-0.131222 0.476327 0.363017
-0.189157 -0.00453035 0.0879013
-0.09019 0.0167351 0.0454576
0.00853873 -0.512262 0.755282
-0.231056 0.0206518 0.152661
-0.203976 0.399415 0.355
-0.221659 0.0953462 0.107687
-0.221092 0.0298327 0.104778
-0.143305 -0.0283747 0.0975288
-0.221276 0.0994665 0.107813
-0.115213 0.0148216 0.10821
-0.0906126 0.0638032 0.0500666
-0.228065 0.0542748 0.13456
-0.207723 0.347856 0.321163
-0.220703 0.109351 0.10818
-0.204656 0.135711 0.0992162
-0.199796 -0.0172352 0.096982
-0.202254 0.387445 0.366701
-0.222557 0.164287 0.112107
-0.206748 0.154221 0.103063
-0.0800898 0.455565 0.308999
-0.219417 0.0942179 0.106413
-0.220711 0.114358 0.108353
-0.191054 0.382163 0.297338
-0.215313 0.0928889 0.102039
-0.219972 0.139416 0.109142
0.0114503 -0.470035 0.798372
-0.212632 0.346327 0.296349
-0.210036 0.0045559 0.12936
-0.222204 0.059579 0.106055
-0.189502 0.149207 0.0943281
-0.211535 0.0127319 0.131659
-0.090592 0.0293628 0.0464448
-0.223225 0.0442659 0.110173
-0.21964 0.144314 0.109135
-0.144667 0.139251 0.074609
-0.117907 0.347306 0.220681
-0.164602 0.154256 0.0836654
-0.218896 0.0992564 0.106192
-0.165837 -0.0301199 0.0904083
-0.199138 0.0155383 0.132946
-0.139725 -0.00375993 0.0746941
-0.218477 0.104177 0.1061
-0.10883 -0.00196838 0.0649637
-0.17774 -0.0140792 0.087079
-0.215055 0.083908 0.103793
-0.0958525 0.476207 0.343122
-0.0555908 0.486396 0.333139
-0.216209 -0.00788263 0.105151
-0.207811 0.379866 0.33468
-0.105028 0.427818 0.289148
-0.154701 0.154255 0.0795704
-0.218469 0.113933 0.106327
-0.21758 0.0439054 0.102246
-0.0909666 0.128823 0.0518857
-0.216217 0.0948438 0.104345
-0.115192 0.399452 0.259768
-0.154698 0.0405074 0.125929
-0.17276 0.452368 0.356821
-0.223519 0.167194 0.114919
-0.197651 0.0889203 0.0967553
-0.15545 0.0207567 0.0972557
-0.201094 0.00588203 0.108183
-0.155077 0.0222902 0.0972304
-0.021154 -0.441398 0.755535
-0.205957 0.362123 0.304961
-0.208809 0.0394137 0.103144
-0.155872 0.461191 0.358214
-0.218643 0.169129 0.106816
-0.194622 0.149225 0.0986447
-0.217422 0.0227239 0.102222
-0.21773 0.0404016 0.101812
-0.122398 0.00449817 0.0810173
-0.183311 0.033878 0.123493
0.0175889 -0.4738 0.807864
-0.146135 0.0907802 0.0728781
-0.176702 0.451367 0.363134
-0.228638 0.16208 0.138322
-0.123426 0.351952 0.227264
-0.208514 0.109352 0.105089
-0.218264 0.129271 0.10688
-0.0845288 0.378152 0.220093
-0.191685 0.109845 0.0925863
-0.195577 0.434191 0.384964
-0.207565 -0.0244335 0.131641
-0.222867 0.0942529 0.111032
0.00261289 -0.48373 0.767949
-0.0700869 0.384095 0.215746
-0.218006 0.134243 0.107238
-0.214656 0.0203144 0.0995117
-0.138068 0.144243 0.0721491
-0.214659 0.0240811 0.0997416
-0.119232 0.341051 0.21202
-0.179653 0.159272 0.0901636
-0.111582 0.172708 0.0627405
-0.208818 0.357913 0.306033
-0.217107 0.025374 0.102678
-0.09117 0.124554 0.0516877
-0.217516 0.0484557 0.102269
-0.217791 0.138508 0.107365
0.0101478 -0.470719 0.795059
-0.137385 0.153852 0.072382
-0.215243 0.0344575 0.100365
-0.196318 0.0713778 0.0927519
-0.221468 -0.00723897 0.125475
-0.13127 0.413039 0.343999
-0.205389 -0.0255524 0.130883
-0.214895 0.039174 0.100228
-0.223267 0.0292274 0.10966
-0.215022 0.0445686 0.1009
-0.0992409 0.472966 0.341038
-0.216806 0.0549033 0.102615
-0.0947758 0.139436 0.0539923
-0.216632 0.0590058 0.1028
-0.22122 -0.00890048 0.12525
-0.204424 -0.020124 0.131429
-0.10041 0.169686 0.0579504
-0.231762 0.109501 0.157729
-0.20535 0.0743219 0.0976757
-0.0904988 -0.0212793 0.0731842
-0.220867 0.03413 0.104689
-0.00537489 -0.462111 0.770258
-0.22651 -0.0226619 0.149994
-0.171938 0.170106 0.087587
-0.198955 0.104717 0.0955282
-0.0917723 0.161051 0.0566772
-0.14427 0.383081 0.255923
-0.139741 -0.0106354 0.0644637
-0.124696 0.129253 0.0658085
-0.0911441 0.153376 0.0533667
-0.0791357 0.457826 0.31124
-0.215675 0.129267 0.105334
-0.201575 -0.00998467 0.108186
-0.215725 0.134073 0.105527
-0.19449 0.308779 0.260366
-0.224348 0.0443425 0.115221
-0.217225 0.142521 0.107476
-0.226661 0.0993104 0.128802
-0.195779 0.384247 0.305422
-0.132035 0.106491 0.0676049
-0.196448 0.0919953 0.0978803
-0.21463 0.0589228 0.10132
-0.100154 0.470722 0.338795
-0.216012 0.0691688 0.100425
-0.215644 0.144304 0.106086
-0.0949392 0.0343559 0.0488424
-0.0950986 0.0608509 0.0525596
-0.203561 0.404087 0.36022
-0.215291 0.154972 0.10833
-0.148302 0.00735523 0.0772786
-0.210397 0.0342987 0.102898
-0.175798 0.449627 0.359712
-0.215499 0.14917 0.106082
-0.0979589 -0.0284871 0.0758138
-0.220449 0.0199285 0.104754
-0.171815 0.06135 0.0815816
-0.141532 0.0695676 0.0695426
-0.222534 0.154047 0.111705
-0.0198588 -0.450848 0.749933
-0.115174 0.455736 0.328799
-0.175458 0.101034 0.0877248
-0.197634 0.087051 0.0981661
-0.188421 0.412436 0.331886
-0.0260218 -0.447148 0.74035
-0.184715 0.0423795 0.138485
-0.186815 0.444122 0.374302
-0.193261 0.463638 0.382358
-0.20974 -0.0137979 0.109226
-0.212212 0.118402 0.107777
-0.159985 0.460283 0.359397
-0.201861 0.0283794 0.094043
-0.225911 0.0099356 0.124187
-0.0210206 -0.470519 0.729794
-0.119475 0.39165 0.252589
-0.0894017 0.435591 0.289698
-0.199775 -0.0205126 0.140551
-0.215941 -0.00933726 0.104919
-0.125549 0.471031 0.353353
-0.184462 -0.00563402 0.0850916
-0.201424 0.0175359 0.139903
-0.143835 0.059255 0.0699446
-0.210783 0.0301071 0.10125
-0.0863171 0.351308 0.222836
-0.222515 0.0161061 0.104968
-0.201007 0.055005 0.0936882
-0.151115 0.022188 0.10073
-0.222931 0.0842189 0.110673
-0.209408 -0.0146237 0.103038
-0.160282 0.045311 0.128095
-0.194941 0.387946 0.308764
-0.223704 0.149286 0.114957
-0.202975 -0.0297902 0.127387
-0.111745 0.169789 0.0626454
-0.140565 0.144382 0.0731906
-0.212252 0.022526 0.0973903
-0.120243 0.341467 0.213477
-0.104703 -0.0201796 0.0791369
-0.0914838 0.135443 0.0551601
-0.00203896 -0.426906 0.807123
-0.117951 -0.0288697 0.0572209
-0.117902 0.366831 0.221266
-0.208963 0.0341259 0.100616
-0.117805 0.00428912 0.072593
-0.209091 0.0792348 0.104495
-0.154617 0.439206 0.349978
-0.20891 0.114188 0.104966
-0.143965 0.0003283 0.0744451
-0.175541 -0.0161707 0.123549
-0.23043 0.0892885 0.150132
-0.208242 -0.00870817 0.0928569
0.00202124 -0.509569 0.744061
-0.201729 -0.0191512 0.129155
-0.0131754 -0.45442 0.759048
-0.207815 0.0291056 0.0961354
-0.171709 0.351894 0.255324
-0.0881103 0.442165 0.29704
-0.172494 0.0650171 0.0820885
-0.148117 0.0132997 0.0952514
-0.109605 0.13429 0.0598392
-0.192622 0.347965 0.281781
-0.204903 -0.0164868 0.100002
-0.178217 0.44204 0.3472
-0.17634 -0.0185529 0.122983
-0.105864 0.129428 0.0580288
-0.0989087 0.0439384 0.0516185
-0.209836 0.159203 0.109893
0.000398437 -0.506141 0.743684
-0.201173 0.0112553 0.130495
-0.20139 0.0150549 0.139166
-0.185277 -0.0106961 0.0834221
-0.123568 0.159173 0.0669597
-0.129922 0.470061 0.354606
-0.121393 -0.0104396 0.0568841
-0.21218 0.11654 0.107528
0.00282235 -0.473276 0.77755
-0.199438 0.0135886 0.131409
-0.208872 0.0739918 0.104877
-0.161991 -0.0160185 0.0776456
-0.149339 0.426125 0.338999
-0.117332 -0.0142586 0.0657452
-0.226 0.0793098 0.124904
-0.13978 0.103167 0.0756033
-0.0792011 0.412869 0.25613
-0.217115 0.003211 0.145925
-0.15776 0.021106 0.0994807
-0.0924209 0.12868 0.0524281
-0.175372 0.357508 0.245426
-0.109696 0.0343127 0.0545114
-0.226833 0.00407756 0.107121
-0.199092 0.0445502 0.0994315
-0.144115 0.0784323 0.0726302
-0.166187 0.00438806 0.0785671
-0.113916 0.462583 0.336495
-0.147435 0.0234177 0.107258
-0.18461 0.442567 0.365961
-0.207751 -0.015088 0.101753
-0.194743 0.386908 0.30715
-0.175609 0.0042063 0.0801033
-0.209832 0.366542 0.319627
-0.208696 0.0962681 0.105796
-0.109949 0.0292438 0.0542989
-0.224639 -0.0289326 0.14665
-0.182662 0.0265687 0.121817
-0.0169445 -0.472749 0.73682
-0.208818 0.0994644 0.105932
-0.0693595 0.388373 0.220587
-0.185547 0.120875 0.0911024
-0.120589 0.461082 0.33838
-0.164057 0.107975 0.0915741
-0.203532 -0.000641387 0.101798
-0.208588 0.0836701 0.105175
-0.212612 0.0196193 0.0968452
-0.121535 0.38491 0.254943
-0.208482 0.104079 0.104469
0.00151859 -0.489361 0.760731
-0.211956 -0.0288132 0.142186
-0.226884 0.0792605 0.129108
-0.207833 0.0995866 0.0989624
-0.208186 -0.00771493 0.0929647
-0.104442 -0.00235993 0.051925
-0.203116 -0.0320279 0.105821
-0.00913612 -0.45904 0.765112
-0.229562 0.158548 0.145326
-0.121426 -0.0186248 0.072705
-0.207772 0.0740525 0.0991966
-0.10248 0.143511 0.057391
-0.0965404 0.352996 0.256814
-0.186682 0.449379 0.380538
-0.208053 0.154368 0.105021
-0.229681 0.0842699 0.145094
-0.208063 0.159281 0.105264
-0.151944 0.0161848 0.0992034
0.00244736 -0.503802 0.750005
-0.198692 -0.0288017 0.11392
-0.190087 0.0641853 0.0893334
-0.207771 0.103997 0.099498
-0.187126 -0.00522254 0.0877835
-0.109401 0.0540427 0.0566052
-0.207736 0.144535 0.104424
-0.175849 -0.017593 0.122461
-0.207484 0.0162668 0.0939174
-0.0834047 0.342566 0.219591
-0.235964 0.139225 0.150887
-0.184818 0.134117 0.0909418
-0.22732 0.0343663 0.126175
-0.0912366 0.0144779 0.0982007
-0.0577509 0.452021 0.292179
-0.205224 0.390068 0.344376
-0.105702 0.0393541 0.0530893
-0.220339 0.0393614 0.104456
-0.129555 0.477501 0.363527
-0.092481 0.456852 0.317497
0.0127738 -0.479465 0.792863
-0.199584 0.00438996 0.106026
-0.207597 0.0591624 0.0963068
-0.194781 0.114559 0.0940351
-0.136849 0.4129 0.339624
-0.0975391 0.352125 0.256326
-0.185324 0.0379235 0.104578
-0.207902 0.0806696 0.0976207
-0.15534 0.440867 0.333519
-0.226598 0.0893612 0.128302
-0.0146741 -0.469371 0.744513
-0.207825 0.109372 0.0991863
-0.190949 0.0838374 0.0907744
-0.185348 0.432022 0.352015
-0.227675 0.109327 0.130426
-0.196294 0.0884318 0.09715
-0.204035 -0.00961042 0.0911022
-0.165046 0.124166 0.0839225
-0.0620028 0.395689 0.225453
-0.113709 -0.0237392 0.0759652
-0.206649 0.0159734 0.0935492
-0.188548 0.420248 0.339848
-0.14958 -0.0203891 0.080414
-0.150231 -0.00113884 0.0700956
-0.207489 0.0642312 0.0965339
-0.19463 0.119206 0.0942325
-0.0984211 0.351291 0.257043
-0.119925 -0.020066 0.0786376
-0.207514 0.0740148 0.0970823
-0.221831 0.0205954 0.107848
-0.207599 0.0943385 0.098208
-0.206063 -0.0069944 0.0929663
-0.189385 0.399465 0.318132
-0.130483 0.129398 0.06821
-0.164954 -0.0158115 0.0786597
-0.0223147 -0.464133 0.733183
-0.173223 0.130223 0.0992695
-0.13673 0.416646 0.292885
-0.129626 0.144306 0.0686609
-0.207868 0.134497 0.100489
-0.200163 -0.0195691 0.0970862
-0.142758 0.449297 0.348279
-0.220897 0.104392 0.108013
-0.196959 0.0148142 0.131544
-0.212665 0.0308674 0.103015
0.0107797 -0.510723 0.761302
-0.205691 0.0200034 0.0933944
-0.20311 0.380547 0.358684
-0.205392 0.0445662 0.0948297
-0.116249 -0.0271353 0.0569998
-0.202215 -0.0124084 0.107443
-0.114624 0.469226 0.34504
-0.0994451 0.114494 0.0545862
-0.228875 0.129223 0.139736
-0.209684 -0.0111922 0.110552
-0.183674 0.439879 0.363788
-0.199647 -0.0106554 0.0892379
-0.0597352 0.469571 0.314814
-0.144712 0.154256 0.07544
-0.232391 -0.00659902 0.14468
-0.151623 0.119319 0.0942426
-0.00376633 -0.455301 0.77958
-0.00359342 -0.460574 0.775318
-0.194856 0.168119 0.0993807
-0.165618 0.375048 0.260094
-0.231017 0.109201 0.155419
-0.196014 0.0900574 0.0976872
-0.0603808 0.420213 0.254631
-0.206151 -0.00846864 0.0925059
-0.225856 0.159279 0.124952
-0.205402 0.0595237 0.0954879
-0.206763 0.141277 0.103118
-0.173697 0.117706 0.0854738
-0.157975 -0.0308938 0.0797185
-0.226904 0.0693007 0.129267
-0.129295 0.368283 0.234295
-0.141959 0.0588355 0.0691418
-0.206846 0.149413 0.103015
-0.204751 0.139249 0.0996295
-0.206697 0.159409 0.103197
-0.206637 0.167692 0.103421
-0.144514 -0.010736 0.0665164
-0.153239 0.0341109 0.119725
-0.204517 0.144396 0.100363
-0.14593 -0.000749876 0.0705283
-0.227783 0.13922 0.132017
-0.191926 0.414788 0.344098
-0.202896 0.0224051 0.0923616
-0.152538 0.115174 0.0918019
-0.175445 0.131589 0.11256
-0.20888 0.37051 0.323563
-0.224957 0.144269 0.120107
-0.199718 -0.00571853 0.0897453
-0.23155 0.00897766 0.143652
-0.0988786 -0.0184631 0.0663419
-0.12428 0.477882 0.361049
-0.138706 0.134239 0.0718714
-0.199177 0.129249 0.0969243
-0.136568 -0.0174227 0.076208
-0.151608 0.0901739 0.0930078
-0.125662 -0.0191257 0.0746234
-0.221986 0.0592166 0.108587
-0.230439 0.0993157 0.150226
-0.195443 0.427331 0.371967
-0.0929185 0.0205236 0.0467836
-0.147827 0.444764 0.338087
-0.0996111 -0.0205469 0.0758783
-0.141581 0.386224 0.258471
-0.0816736 0.441568 0.292714
-0.201429 0.0351414 0.093928
-0.0947927 0.12932 0.0534671
-0.169622 0.453385 0.356316
-0.226158 0.00564915 0.101077
-0.201741 0.0444381 0.0956678
-0.0825875 0.457062 0.31223
-0.0948086 0.134446 0.0540179
-0.143455 0.124815 0.0733241
-0.122137 0.411707 0.321777
-0.0997929 0.483208 0.353909
-0.160731 0.080691 0.0781174
-0.157471 0.471938 0.37229
-0.225995 -0.0098684 0.143374
-0.201931 0.0214025 0.0918616
-0.187113 0.0600229 0.0878285
-0.215579 0.119616 0.104146
-0.201567 0.0311728 0.0922729
-0.200591 0.0336719 0.0920292
-0.0600888 0.417703 0.251388
-0.207648 0.298483 0.267145
-0.191597 0.40688 0.323024
-0.0943646 0.149094 0.0543365
-0.106061 0.0343436 0.0529669
-0.126108 0.0881237 0.0690899
-0.144421 0.0993445 0.0738342
-0.152672 0.0162609 0.0994067
-0.201712 0.0648805 0.0943873
-0.0938046 0.447503 0.306767
0.0118306 -0.474914 0.794887
-0.197951 0.00814994 0.10651
-0.0947548 0.17296 0.0557892
-0.14425 0.074499 0.0725259
-0.201396 0.0214149 0.092557
-0.0999535 0.4551 0.319521
-0.199273 0.0478572 0.0996877
-0.0833364 0.452352 0.306871
-0.223307 0.0391798 0.110056
-0.201791 0.110393 0.0981039
-0.100798 -0.0133492 0.0515188
-0.124347 0.473309 0.355558
-0.128762 0.418824 0.307138
-0.201657 0.112991 0.0982352
-0.104734 0.172783 0.0599084
-0.079345 0.408322 0.250632
-0.176004 0.11452 0.0866917
-0.208872 0.351016 0.261292
-0.192707 0.0211377 0.124051
-0.00279714 -0.430003 0.803603
-0.199831 0.0416598 0.099389
-0.0900329 0.108221 0.0523405
-0.084314 0.463208 0.320733
-0.183061 0.0313189 0.122886
-0.191047 0.0598572 0.102623
-0.202625 0.412844 0.370579
-0.16526 0.0198531 0.0802253
-0.184425 0.149195 0.0915887
-0.194351 -0.0177533 0.094053
-0.0794938 0.403834 0.245211
-0.0915722 0.0937005 0.052872
-0.0160112 -0.480545 0.73193
0.0187128 -0.496655 0.790167
-0.111335 0.355015 0.22809
-0.185926 0.137736 0.0916297
-0.070117 0.410736 0.248524
-0.198492 0.0254824 0.0986501
-0.189805 0.144961 0.0950405
-0.199207 0.114278 0.0959577
-0.0799177 0.395015 0.23463
-0.124844 -0.0297737 0.069282
-0.154978 0.113989 0.100182
-0.0977831 0.0829963 0.0521749
0.0145695 -0.481219 0.795067
-0.191119 0.0212436 0.123343
-0.13918 0.124412 0.0715354
-0.198716 0.119045 0.0965296
-0.117394 0.010197 0.108874
-0.198651 -0.0301038 0.0877798
-0.186097 0.164917 0.0931272
-0.134517 0.0761934 0.0669916
-0.166756 0.0194387 0.0851451
-0.187569 0.448307 0.380582
-0.197678 -0.0303319 0.0873397
-0.164644 0.159261 0.0839539
-0.144998 0.0313774 0.121284
-0.187681 0.0307661 0.135363
-0.115619 0.451093 0.323351
-0.104045 0.077917 0.0558708
-0.119247 0.366914 0.258816
-0.214837 0.109343 0.104642
-0.205014 -0.0291959 0.128757
-0.177652 0.438436 0.342463
-0.182997 -0.0140358 0.0821614
-0.224392 0.0392262 0.11552
-0.0952739 0.00206573 0.0784426
-0.193893 -0.0201399 0.093781
-0.219687 0.154289 0.109704
-0.196523 -0.0154064 0.0877508
-0.23041 0.149297 0.149739
-0.15108 0.0352869 0.117418
-0.228743 0.09421 0.140174
-0.195708 -0.00634726 0.0889568
-0.184495 0.413882 0.32983
-0.193862 0.0122759 0.102286
-0.196998 0.0862313 0.0976288
-0.126432 0.0827042 0.0735716
-0.231735 0.114349 0.157951
-0.184579 0.0395183 0.138232
0.0152122 -0.470231 0.805891
-0.172749 0.462605 0.370999
-0.194159 -0.01562 0.0867434
-0.194843 0.104299 0.0934728
-0.174689 0.444187 0.350058
-0.145764 0.0939057 0.0740916
-0.20008 0.00128743 0.10501
-0.194382 0.124558 0.0946113
-0.110678 0.055627 0.0583218
-0.192403 0.103494 0.0924163
0.0151604 -0.504647 0.775757
-0.18504 0.129623 0.0907935
-0.235149 0.0642473 0.146404
-0.0950172 0.0435565 0.0504619
-0.193891 0.367695 0.281869
-0.18424 0.0264751 0.137135
0.0180418 -0.486883 0.797337
-0.192589 -0.0210469 0.0911357
-0.137208 0.157357 0.072476
-0.227902 0.0943164 0.134651
-0.193184 -0.00622031 0.0868139
-0.01019 -0.450153 0.769973
-0.186835 0.415663 0.335701
-0.193859 0.0835538 0.0919803
-0.0711432 0.42628 0.268082
-0.142393 -0.0278152 0.0646512
-0.217641 -0.00782406 0.105519
-0.162363 0.0457805 0.128374
-0.226254 0.0392884 0.125022
-0.178721 0.0242549 0.111385
-0.159455 0.413078 0.301198
-0.193599 -0.0183479 0.0872451
-0.0789423 0.378633 0.214528
-0.126627 0.0812434 0.0735331
-0.144051 0.129509 0.0738256
-0.217135 0.0011998 0.1456
-0.20636 0.299116 0.266796
-0.0954273 0.370425 0.213956
-0.191822 -0.0192666 0.0926898
-0.143077 0.407426 0.342608
-0.127979 0.374222 0.237002
-0.189885 0.139238 0.093477
-0.126306 0.085733 0.0695289
-0.231016 0.114312 0.155382
-0.18282 0.0395432 0.137458
0.0139479 -0.471871 0.801967
-0.17441 0.463975 0.375026
-0.19037 0.0487411 0.0960786
-0.116903 0.366589 0.260436
-0.149909 0.169332 0.0784045
-0.0897246 -0.0212154 0.0724846
-0.156633 0.337228 0.232011
-0.192687 0.0990456 0.0922931
-0.0944162 0.0934733 0.0541778
-0.0627915 0.417081 0.252134
-0.227682 0.0196623 0.134797
-0.106069 0.419578 0.279362
-0.0905827 0.0490935 0.0487892
-0.228231 0.0293438 0.134327
-0.149671 -0.00611037 0.0689396
-0.190018 0.052781 0.0964267
-0.192406 0.0614509 0.0900918
0.0108584 -0.455271 0.805453
-0.224243 0.0642668 0.115103
-0.213842 0.34436 0.247272
-0.133502 0.00619557 0.0676765
-0.1694 0.00801262 0.0802497
-0.150264 0.164355 0.0782814
-0.116462 -0.00257279 0.0742349
-0.142866 0.447192 0.338324
-0.182681 -0.0285443 0.119434
-0.187591 0.036609 0.10502
-0.114883 -0.0277358 0.0577184
-0.187437 0.0381231 0.10513
-0.124012 0.029169 0.108555
-0.201898 0.0247272 0.0931702
-0.192175 0.107249 0.0924711
-0.182757 -0.0258504 0.120778
-0.0953115 0.11392 0.0545323
-0.207811 0.298833 0.268144
-0.210995 -0.010944 0.119444
-0.191921 0.146669 0.0975184
-0.190862 0.124493 0.0931097
-0.0209046 -0.465122 0.734535
-0.061578 0.491549 0.342803
-0.0909505 0.466256 0.328177
-0.119202 0.46796 0.346043
-0.121916 0.386951 0.258545
